# .PCD v0.7 - Point Cloud Data file format
VERSION 0.7
FIELDS x y z rgba
SIZE 4 4 4 4
TYPE F F F U
COUNT 1 1 1 1
WIDTH 1022
HEIGHT 1
VIEWPOINT 0 0 0 1 0 0 0
POINTS 1022
DATA ascii
0.88316983 -0.12432253 -0.067614198 4288159036
0.88321108 -0.12536904 -0.06765914 4288158784
0.88325226 -0.12641554 -0.067703962 4287961405
0.88387179 -0.12750021 -0.068579912 4287895353
0.88391298 -0.12854764 -0.068624794 4287763767
0.88453263 -0.12963511 -0.069500685 4287960122
0.8851524 -0.1307244 -0.070376754 4287960376
0.88519377 -0.13177367 -0.070421815 4287894583
0.88581347 -0.13286573 -0.071297884 4287894581
0.88643342 -0.13395964 -0.072174132 4287762997
0.88647479 -0.13501075 -0.072219253 4287566131
0.88767344 -0.13615301 -0.073926806 4287500853
0.88829362 -0.13725245 -0.074803352 4287764025
0.88891381 -0.13835375 -0.075679839 4288025915
0.89127028 -0.13960189 -0.07905072 4287959866
0.89246953 -0.1407589 -0.080758929 4287894332
0.89309013 -0.14186941 -0.081635952 4287697725
0.94259787 0.88826972 -0.16903937 4280823086
0.94264537 0.88706261 -0.16909111 4280888622
0.94323975 0.8865971 -0.16994071 4280822830
0.94383413 0.88612974 -0.17079055 4280953135
0.94552237 0.8871401 -0.17323649 4280756012
0.94611698 0.88666731 -0.17408645 4281084468
0.94671172 0.88619256 -0.17493653 4281150003
0.88752657 -0.053853255 -0.076690197 4285423448
0.88699329 -0.054938145 -0.075907052 4285488727
0.88588494 -0.056045763 -0.074295104 4283908671
0.88362616 -0.05719696 -0.071025431 4283512117
0.88309252 -0.05827263 -0.070241928 4283641137
0.88313395 -0.059324671 -0.070287049 4283506472
0.88202488 -0.060418442 -0.068674386 4283372064
0.88206625 -0.061468638 -0.068719387 4283895586
0.88210756 -0.062518835 -0.068764448 4284945194
0.88214892 -0.063569024 -0.068809509 4286126901
0.88219029 -0.064619213 -0.06885457 4286980670
0.88223165 -0.06566941 -0.068899572 4287308352
0.88227296 -0.066719607 -0.068944633 4287438911
0.88231432 -0.067769796 -0.068989694 4287373118
0.88235569 -0.068819985 -0.069034696 4287832386
0.882397 -0.069870189 -0.069079757 4287832386
0.88243836 -0.070920378 -0.069124818 4287766336
0.88190418 -0.071981281 -0.068340659 4287897922
0.88194549 -0.073030561 -0.068385661 4287831359
0.88141108 -0.074088693 -0.067601264 4287568187
0.88087666 -0.075144984 -0.066816866 4287370295
0.88091791 -0.076192409 -0.066861808 4287370295
0.88095915 -0.077239834 -0.06690675 4287633210
0.88042456 -0.078292444 -0.066122115 4287633210
0.88046581 -0.079338938 -0.066166997 4287764026
0.88050699 -0.080385447 -0.066211879 4287829819
0.88054818 -0.081431948 -0.066256762 4287961405
0.88001341 -0.082479939 -0.065471888 4287895612
0.88005453 -0.083525524 -0.06551677 4287829819
0.88009572 -0.084571108 -0.065561593 4287764026
0.88013691 -0.085616678 -0.065606475 4287895612
0.88017803 -0.086662255 -0.065651298 4287829819
0.88021922 -0.08770784 -0.06569612 4287567162
0.88026035 -0.088753417 -0.065741003 4287501368
0.88030154 -0.089798994 -0.065785825 4287567160
0.88034266 -0.090844579 -0.065830708 4287567416
0.88038385 -0.091890156 -0.06587553 4287698233
0.88042504 -0.092935733 -0.065920353 4287764026
0.88046616 -0.093981318 -0.065965235 4287632955
0.88050735 -0.095026895 -0.066010058 4287699261
0.88054854 -0.096072473 -0.06605494 4287633470
0.88116622 -0.097129479 -0.066930056 4287634240
0.88120741 -0.09817598 -0.066974938 4287831876
0.88182515 -0.099235751 -0.067850173 4287963975
0.8818664 -0.10028318 -0.067895114 4287700549
0.88190758 -0.1013306 -0.067939997 4287108412
0.88194883 -0.10237803 -0.067984939 4287436868
0.88199008 -0.10342545 -0.068029881 4287634247
0.88203132 -0.10447288 -0.068074822 4287831624
0.88207257 -0.1055203 -0.068119764 4287633989
0.88211375 -0.10656773 -0.068164647 4287567425
0.88157821 -0.1075945 -0.067378879 4287633218
0.88161939 -0.10864101 -0.06742382 4287764291
0.88166064 -0.10968751 -0.067468703 4287764291
0.88170183 -0.110734 -0.067513585 4287764291
0.88174301 -0.1117805 -0.067558467 4287961156
0.8817842 -0.112827 -0.06760335 4288223045
0.88182539 -0.1138735 -0.067648232 4288354631
0.88186663 -0.11492001 -0.067693114 4288421192
0.88133067 -0.11593848 -0.066906989 4288421705
0.8813718 -0.11698405 -0.066951871 4288159301
0.88141298 -0.11802964 -0.066996694 4288093508
0.88145417 -0.11907522 -0.067041516 4287961920
0.8814953 -0.12012079 -0.067086399 4287896127
0.88095921 -0.12113371 -0.066300154 4288093248
0.88100034 -0.12217837 -0.066344976 4288290625
0.88104147 -0.12322303 -0.066389799 4288290368
0.88108259 -0.12426767 -0.066434562 4288159036
0.88170111 -0.12534869 -0.067310631 4288092991
0.8817423 -0.12639427 -0.067355454 4287961405
0.88236105 -0.12747803 -0.068231761 4287763767
0.88297981 -0.12856364 -0.069108129 4287566388
0.883021 -0.12961107 -0.069153011 4287632181
0.88363987 -0.13069949 -0.070029378 4287829560
0.88483644 -0.13183159 -0.071737409 4288026167
0.8848778 -0.13288179 -0.07178241 4287894581
0.88549691 -0.13397571 -0.072659135 4287697204
0.88553828 -0.13502683 -0.072704196 4287500595
0.88731313 -0.13621467 -0.075244427 4287632179
0.88793248 -0.13731506 -0.076121271 4287829558
0.88855189 -0.1384173 -0.076998353 4287960376
0.89032716 -0.13961807 -0.07953912 4287762743
0.89094681 -0.14072585 -0.080416322 4287696953
0.89214456 -0.14188564 -0.082125604 4287565883
0.93646747 0.88515657 -0.16225743 4280889134
0.93760639 0.88544846 -0.16390538 4280823341
0.93929124 0.88648093 -0.16635144 4280823340
0.94206828 0.88899463 -0.17039454 4280954414
0.94211584 0.88778663 -0.17044628 4281151025
0.94270939 0.88732022 -0.17129648 4281151027
0.94384909 0.88759261 -0.17294514 4281018929
0.94444281 0.88712156 -0.17379558 4280887344
0.94503659 0.88664877 -0.1746459 4281083697
0.95405704 -0.043745615 -0.17470407 4285358421
0.95180726 -0.04503794 -0.17143893 4283187252
0.88773108 -0.053816658 -0.078837156 4288516232
0.8866244 -0.054928869 -0.077224433 4288384646
0.88551766 -0.05603737 -0.075611711 4284303942
0.88268799 -0.057213057 -0.071511269 4283119155
0.88272941 -0.058266018 -0.071556449 4283445556
0.88219661 -0.059340753 -0.070772469 4283377196
0.88108921 -0.060434494 -0.069158912 4283110946
0.88113058 -0.061484691 -0.069203973 4283437088
0.88117188 -0.062534884 -0.069249034 4284223524
0.88121325 -0.063585073 -0.069294035 4285339438
0.88125461 -0.064635269 -0.069339097 4286324280
0.88129592 -0.065685466 -0.069384158 4286980670
0.88133729 -0.066735655 -0.069429159 4287308352
0.88137865 -0.067785852 -0.06947422 4287571010
0.88141996 -0.068836041 -0.069519281 4287898949
0.88146132 -0.069886237 -0.069564342 4287898949
0.88150269 -0.070936427 -0.069609344 4287766593
0.88096935 -0.071997322 -0.068824768 4287832386
0.88101059 -0.073046595 -0.06886977 4287897152
0.88105196 -0.074095868 -0.068914771 4287633980
0.88051832 -0.075153068 -0.068129897 4287567674
0.88055962 -0.076201417 -0.068174899 4287501881
0.88002592 -0.077255845 -0.067390025 4287633210
0.88006717 -0.07830327 -0.067434967 4287764796
0.88010842 -0.079350695 -0.067479849 4287829819
0.8795746 -0.080401443 -0.066694736 4287764026
0.87961578 -0.081447944 -0.066739619 4287764796
0.87965697 -0.082494445 -0.066784501 4287830589
0.87969822 -0.083540946 -0.066829383 4287830589
0.87916416 -0.08458709 -0.066044033 4287764796
0.87920529 -0.085632659 -0.066088915 4288026685
0.87982184 -0.086680457 -0.06696403 4287961405
0.87986302 -0.087726958 -0.067008913 4287895613
0.87990421 -0.088773459 -0.067053795 4287764796
0.8799454 -0.08981996 -0.067098677 4287830589
0.8794111 -0.090860561 -0.066313148 4287830587
0.87945229 -0.091906138 -0.06635797 4287829817
0.87949342 -0.092951715 -0.066402793 4287764024
0.8795346 -0.0939973 -0.066447675 4287698233
0.87957579 -0.095042877 -0.066492498 4287764026
0.87961692 -0.096088454 -0.06653738 4287567417
0.88023382 -0.097145475 -0.067412913 4287699003
0.88027501 -0.098191977 -0.067457795 4287764283
0.88089192 -0.099251769 -0.068333447 4287632697
0.88093311 -0.10029919 -0.068378389 4287829564
0.88097435 -0.10134662 -0.068423331 4287698491
0.8810156 -0.10239404 -0.068468213 4287697981
0.88105685 -0.10344147 -0.068513155 4287632958
0.88109809 -0.10448889 -0.068558097 4287764544
0.88113934 -0.10553632 -0.068603039 4288027972
0.88118058 -0.10658374 -0.068647921 4287829567
0.88122183 -0.10763116 -0.068692863 4287961409
0.88126302 -0.10867859 -0.068737805 4288092995
0.88130426 -0.10972601 -0.068782747 4287632958
0.88076943 -0.11075 -0.067996442 4287567934
0.88081062 -0.1117965 -0.068041325 4287765313
0.88085181 -0.112843 -0.068086207 4287962179
0.88089305 -0.1138895 -0.068131089 4288027715
0.88093424 -0.114936 -0.068175972 4288159299
0.88097543 -0.11598251 -0.068220854 4288159300
0.88044024 -0.11700004 -0.067434311 4288094019
0.88048142 -0.11804562 -0.067479134 4288094019
0.88052255 -0.1190912 -0.067523956 4288224834
0.88056374 -0.12013678 -0.067568839 4288224577
0.88002843 -0.12114968 -0.066782176 4288290370
0.88006955 -0.12219434 -0.066826999 4288356163
0.88011068 -0.123239 -0.066871762 4288158782
0.88015181 -0.12428365 -0.066916585 4288092989
0.88076955 -0.12536466 -0.067793071 4288092992
0.88081074 -0.12641025 -0.067837894 4288027198
0.88142866 -0.12749404 -0.068714619 4287632183
0.88204652 -0.12857968 -0.069591403 4287500595
0.88266456 -0.12966716 -0.070468128 4287566388
0.88270581 -0.1307155 -0.07051307 4287763767
0.88447762 -0.13188955 -0.073053956 4288026167
0.88451898 -0.13294065 -0.073099077 4287894581
0.88513738 -0.13403553 -0.073976219 4287696950
0.88517874 -0.13508756 -0.074021339 4287762743
0.88695115 -0.13627638 -0.076562762 4287500342
0.88699263 -0.13733119 -0.076608002 4287631928
0.88761121 -0.13843344 -0.077485442 4288025915
0.93539935 0.88513821 -0.16281056 4281152307
0.93653661 0.8854301 -0.16445935 4281086514
0.93767405 0.88571811 -0.16610813 4280889135
0.940992 0.88897622 -0.17095184 4280954415
0.94103956 0.88776821 -0.1710037 4281151026
0.94163227 0.88730174 -0.17185438 4281216819
0.9427703 0.88757414 -0.17350376 4281150516
0.94281799 0.88636339 -0.17355573 4281282101
0.94341093 0.88589144 -0.17440665 4281478453
0.95134264 -0.045024756 -0.17280543 4283187252
0.88793212 -0.053780138 -0.080985725 4290490022
0.88682729 -0.054894149 -0.079372346 4290226337
0.88572222 -0.056004491 -0.077758729 4285291094
0.88347012 -0.057158336 -0.074485898 4283052848
0.88236475 -0.058259428 -0.072871923 4283314226
0.88183272 -0.059335075 -0.072087467 4283706417
0.88072711 -0.060429707 -0.070473254 4283176996
0.88019484 -0.061500747 -0.069688559 4283437088
0.88023621 -0.06255094 -0.06973356 4283894816
0.87970394 -0.063619196 -0.068948865 4284681765
0.8797453 -0.064668469 -0.068993866 4285469484
0.88036025 -0.065701514 -0.069868743 4286257204
0.88040155 -0.066751711 -0.069913745 4286783291
0.88044292 -0.067801908 -0.069958806 4287505731
0.88048428 -0.068852097 -0.070003867 4287768389
0.88052565 -0.069902293 -0.070048928 4287899462
0.88056695 -0.07095249 -0.07009393 4287701570
0.88003445 -0.072013363 -0.069308937 4287701570
0.88007575 -0.073062643 -0.069353938 4287766336
0.88011706 -0.074111909 -0.06939894 4287700543
0.87958425 -0.075169101 -0.068613648 4287830846
0.87962556 -0.076217443 -0.06865859 4287765053
0.87909269 -0.077271856 -0.067873299 4287699003
0.87913394 -0.078319281 -0.067918241 4287830589
0.87860101 -0.079370938 -0.067132711 4287829819
0.8786422 -0.080417439 -0.067177594 4287566647
0.87868339 -0.081463948 -0.067222476 4287567417
0.87815022 -0.082511917 -0.066436768 4287896382
0.87819141 -0.083557487 -0.06648165 4287962175
0.87823254 -0.084603071 -0.066526473 4287962175
0.87827373 -0.085648641 -0.066571355 4288092991
0.87831485 -0.086694218 -0.066616178 4288224577
0.87835604 -0.087739803 -0.066661 4288093507
0.87839717 -0.08878538 -0.066705883 4288027713
0.87843835 -0.089830957 -0.066750705 4288027199
0.87847954 -0.090876542 -0.066795588 4287895612
0.87852067 -0.091922119 -0.06684041 4287763767
0.87798721 -0.092959926 -0.066054404 4287697974
0.87802833 -0.094004586 -0.066099226 4287697721
0.87864417 -0.095058858 -0.066974938 4287698234
0.87868536 -0.096104436 -0.06701982 4287632440
0.87872654 -0.09715002 -0.067064643 4287435575
0.87934262 -0.09820798 -0.067940652 4287435061
0.87995869 -0.099267781 -0.068816781 4287435061
0.87999994 -0.10031521 -0.068861663 4287961149
0.88004112 -0.10136263 -0.068906605 4287829820
0.88008237 -0.10241006 -0.068951547 4287567164
0.88012362 -0.10345748 -0.068996429 4287567164
0.88016486 -0.10450491 -0.069041371 4287961152
0.88020611 -0.10555233 -0.069086313 4287961152
0.88024729 -0.10659976 -0.069131255 4288158531
0.88028854 -0.10764717 -0.069176137 4288224324
0.88032979 -0.1086946 -0.069221079 4288157760
0.88037103 -0.10974202 -0.069266021 4287960639
0.88041228 -0.11078946 -0.069310904 4287962435
0.88045353 -0.11183688 -0.069355845 4288028485
0.88049477 -0.11288431 -0.069400787 4287962435
0.8799606 -0.1139055 -0.068613946 4288094021
0.88000184 -0.11495201 -0.068658829 4288092994
0.88004303 -0.11599851 -0.068703711 4288093508
0.87950867 -0.11701602 -0.067916751 4288356935
0.8795498 -0.1180616 -0.067961574 4288159812
0.87959099 -0.11910718 -0.068006396 4288356163
0.87963217 -0.12015276 -0.068051279 4288158784
0.8790977 -0.12116565 -0.067264199 4288027198
0.87913883 -0.12221031 -0.067309022 4288027198
0.87917995 -0.12325497 -0.067353785 4288092991
0.87922108 -0.12429962 -0.067398608 4288158784
0.87983793 -0.12538065 -0.068275511 4288092992
0.88045502 -0.12646353 -0.069152594 4287961405
0.8804962 -0.12751004 -0.069197476 4287763513
0.88168925 -0.12863484 -0.070906878 4287763767
0.8817305 -0.1296832 -0.070951819 4287829045
0.88234782 -0.13077252 -0.0718292 4287894581
0.88411719 -0.13194752 -0.074371397 4287960374
0.88415861 -0.13299957 -0.074416518 4287960374
0.88420004 -0.13405161 -0.074461639 4287894072
0.88481748 -0.13514835 -0.075339198 4287828536
0.88658744 -0.13633811 -0.077882051 4287828793
0.88662905 -0.13739386 -0.077927291 4287828536
0.88724691 -0.13849702 -0.078805268 4288156989
0.87930417 0.825993 -0.082798243 4280823339
0.87989151 0.82564473 -0.083644271 4280823852
0.8804788 0.82529449 -0.084490359 4280758315
0.88052243 0.82418621 -0.084537864 4280758315
0.9343313 0.88511997 -0.1633637 4281086513
0.93546695 0.88541174 -0.16501331 4281086259
0.93660271 0.88569975 -0.16666293 4281020467
0.93937141 0.88821435 -0.17071021 4281086004
0.93996328 0.88774973 -0.171561 4281282613
0.94001085 0.88654172 -0.17161286 4281282613
0.94114715 0.88681501 -0.17326331 4281413429
0.9417392 0.88634485 -0.17411435 4281545015
0.94178689 0.88513404 -0.17416632 4281741880
0.94252849 0.85172951 -0.17476809 4287531896
0.94257611 0.85051966 -0.17482007 4287729276
0.94262373 0.8493098 -0.17487192 4287860863
0.95030421 -0.045042574 -0.1733433 4284371526
0.88641238 -0.053822756 -0.080646336 4290753194
0.88588172 -0.054910377 -0.079862058 4290950573
0.88477826 -0.056020685 -0.078247547 4286606439
0.8825295 -0.057174474 -0.074972987 4283118126
0.88199842 -0.058252871 -0.074188173 4283051565
0.88146728 -0.059329424 -0.073403418 4283773492
0.87979054 -0.060445778 -0.070958257 4282982181
0.87925917 -0.061516803 -0.070173085 4282913822
0.87930048 -0.062566996 -0.070218146 4283437344
0.8787691 -0.063635245 -0.069433033 4283895585
0.87881041 -0.06468451 -0.069478035 4284485669
0.87885171 -0.065733783 -0.069523036 4285273645
0.87889302 -0.066783056 -0.069568038 4286454584
0.87893432 -0.067832321 -0.069613039 4287045694
0.87897563 -0.068881594 -0.069658041 4287439424
0.87901694 -0.069930866 -0.069703043 4287833669
0.87905824 -0.070980132 -0.069748044 4287898949
0.87909955 -0.072029404 -0.069793046 4287963972
0.87856764 -0.07308843 -0.069007397 4288027968
0.87860894 -0.074136779 -0.069052398 4288093248
0.87807697 -0.075193018 -0.068266749 4288027198
0.87811822 -0.07624045 -0.068311691 4287961405
0.87815946 -0.077287868 -0.068356574 4287633210
0.87762737 -0.078340441 -0.067570686 4287896382
0.87766856 -0.079386935 -0.067615569 4287830589
0.87770981 -0.080433443 -0.067660451 4287567417
0.87717748 -0.081482314 -0.066874385 4287567674
0.87721866 -0.082527898 -0.066919208 4287962175
0.87725979 -0.083573475 -0.06696403 4288224577
0.87730098 -0.08461906 -0.067008913 4288158784
0.87734216 -0.08566463 -0.067053735 4287961405
0.87738329 -0.086710207 -0.067098618 4287896382
0.87742448 -0.087755792 -0.06714344 4288159554
0.87746561 -0.088801369 -0.067188263 4288027968
0.87750679 -0.089846946 -0.067233145 4287764796
0.87697417 -0.090886585 -0.066446781 4287632953
0.87701529 -0.091931246 -0.066491604 4287435574
0.87705648 -0.0929759 -0.066536427 4287435831
0.87709761 -0.09402056 -0.06658119 4287633210
0.87713873 -0.095065214 -0.066626012 4287567417
0.87717986 -0.096109875 -0.066670835 4287435831
0.87722099 -0.097154528 -0.066715658 4287238452
0.87783611 -0.098211579 -0.067591906 4287172659
0.87845141 -0.099270478 -0.068468392 4287501368
0.87849259 -0.10031698 -0.068513274 4287764796
0.87910789 -0.10137864 -0.06938988 4287764796
0.87914914 -0.10242607 -0.069434822 4287633210
0.87919039 -0.10347349 -0.069479764 4287830333
0.87923163 -0.10452092 -0.069524646 4287896127
0.87927288 -0.10556834 -0.069569588 4287896127
0.87931412 -0.10661577 -0.06961453 4287962432
0.87935537 -0.10766318 -0.069659472 4287896383
0.87939656 -0.10871061 -0.069704354 4287764796
0.87886339 -0.1097355 -0.068917274 4287830590
0.87890458 -0.110782 -0.068962157 4288094019
0.87894577 -0.1118285 -0.069007039 4288159812
0.87898701 -0.112875 -0.069051921 4288225349
0.8790282 -0.1139215 -0.069096804 4288356678
0.87849474 -0.11494085 -0.068309426 4288422470
0.87853593 -0.11598643 -0.068354309 4288356933
0.87800241 -0.11700299 -0.067566991 4288356678
0.87804353 -0.11804765 -0.067611754 4288290885
0.87808466 -0.11909231 -0.067656577 4288291140
0.87812579 -0.12013697 -0.067701399 4288027711
0.87759209 -0.12114892 -0.066913724 4287764796
0.87763321 -0.12219266 -0.066958487 4287962175
0.87767428 -0.1232364 -0.06700325 4288224577
0.8782903 -0.12431559 -0.06788063 4288092991
0.87890637 -0.12539664 -0.068757892 4287961405
0.87952262 -0.12647954 -0.069635451 4287895612
0.87956381 -0.12752603 -0.069680333 4287961405
0.88075513 -0.12865087 -0.071390569 4287895612
0.88137162 -0.12973928 -0.072268307 4287763513
0.88198799 -0.13082957 -0.073146045 4287631927
0.88202935 -0.13187976 -0.073191106 4287763513
0.8843717 -0.13310136 -0.07656759 4287960891
0.88556367 -0.1342428 -0.078278601 4288091708
0.88675588 -0.13538793 -0.079989731 4287894329
0.88564682 -0.13635427 -0.078369141 4288157501
0.88568836 -0.13740999 -0.07841444 4288091708
0.88630539 -0.13851318 -0.079292834 4288026685
0.92224437 -0.1481393 -0.13122845 4286456142
0.92401528 -0.14941496 -0.13377631 4291263143
0.92521065 -0.15064131 -0.13549089 4294226654
0.9252547 -0.1517598 -0.13553882 4292915158
0.87831837 0.82597607 -0.083308816 4280888874
0.87890482 0.8256278 -0.084155262 4280757802
0.87949133 0.82527757 -0.085001767 4280692265
0.87953496 0.82416928 -0.085049272 4280758059
0.93434995 0.886594 -0.16551578 4280824110
0.93548399 0.88688385 -0.16716623 4281020722
0.93607467 0.88642573 -0.16801727 4281217846
0.93829596 0.88819593 -0.17126715 4281283383
0.93834347 0.88698882 -0.17131889 4281414201
0.9389345 0.88652325 -0.17217028 4281413944
0.9395256 0.88605583 -0.17302179 4281544759
0.94011682 0.88558662 -0.17387342 4281545014
0.94016451 0.88437682 -0.17392528 4281741622
0.94021213 0.88316691 -0.17397714 4281741876
0.94090587 0.85099709 -0.1745255 4287400311
0.94095349 0.84978819 -0.17457736 4287663483
0.94100106 0.84857929 -0.17462921 4287795070
0.94702548 -0.046346091 -0.17061055 4285029456
0.94592804 -0.047566175 -0.16899991 4284239940
0.94540209 -0.048754387 -0.16821957 4284502345
0.88546598 -0.053838991 -0.081136465 4290753194
0.88493615 -0.0549266 -0.08035171 4290621095
0.88383436 -0.056036882 -0.078736365 4287066735
0.88216072 -0.057167027 -0.076290607 4283183665
0.88105863 -0.058268998 -0.074674904 4283446323
0.88052827 -0.059345536 -0.073889673 4283774262
0.87828213 -0.060482658 -0.070612609 4283311403
0.8783235 -0.061532855 -0.07065767 4282980128
0.87779289 -0.062602013 -0.069872141 4283372065
0.87726218 -0.063669324 -0.069086432 4283961635
0.87730342 -0.06471768 -0.069131434 4284289060
0.87734467 -0.065766022 -0.069176376 4284813607
0.87738597 -0.06681437 -0.069221318 4286125618
0.87742722 -0.067862719 -0.069266319 4286914107
0.87746853 -0.068911068 -0.069311261 4287439424
0.87750977 -0.069959417 -0.069356263 4287636290
0.87755108 -0.071007758 -0.069401205 4287635777
0.87759233 -0.072056107 -0.069446146 4287766336
0.87763363 -0.073104456 -0.069491148 4287896639
0.87710255 -0.074161604 -0.068705082 4287896382
0.8771438 -0.075209036 -0.068750024 4288092478
0.87718499 -0.076256454 -0.068794966 4288026685
0.87665373 -0.077309936 -0.068008661 4287829819
0.87612242 -0.078361556 -0.067222238 4287961405
0.87616354 -0.079407141 -0.06726712 4287699003
0.87620473 -0.080452718 -0.067311943 4287435831
0.87567329 -0.081500649 -0.066525519 4287435831
0.87571442 -0.08254531 -0.066570342 4287764796
0.87575555 -0.083589956 -0.066615164 4288092991
0.87579668 -0.084634617 -0.066659927 4288158784
0.8758378 -0.08567927 -0.06670475 4287896382
0.87587893 -0.086723931 -0.066749573 4287896382
0.87592006 -0.087768584 -0.066794395 4288027968
0.87596118 -0.088813245 -0.066839159 4287896382
0.87600231 -0.089857899 -0.066883981 4287896382
0.87604344 -0.090902552 -0.066928804 4287830589
0.87608457 -0.091947213 -0.066973567 4287567417
0.87612569 -0.092991866 -0.06701839 4287435831
0.87616682 -0.094036527 -0.067063212 4287501624
0.87620795 -0.09508118 -0.067108035 4287633210
0.87624907 -0.096125841 -0.067152858 4287567417
0.8762902 -0.097170494 -0.067197621 4287304245
0.87633133 -0.098215148 -0.067242444 4287304245
0.87694567 -0.099273138 -0.068119168 4287567417
0.87698686 -0.10031872 -0.068164051 4287764796
0.87760139 -0.10137948 -0.069041014 4287699003
0.87764257 -0.10242599 -0.069085896 4287764794
0.87768382 -0.10347249 -0.069130778 4287764794
0.87772501 -0.10451899 -0.06917572 4287699261
0.87776619 -0.10556549 -0.069220603 4287765054
0.87780738 -0.10661199 -0.069265485 4287896639
0.87784857 -0.10765849 -0.069310367 4287830846
0.87788981 -0.108705 -0.069355249 4287830846
0.877931 -0.1097515 -0.069400132 4288028225
0.87739849 -0.11077451 -0.068612516 4287962433
0.87743968 -0.11182009 -0.068657339 4288094019
0.8774808 -0.11286567 -0.068702221 4288159811
0.87752199 -0.11391125 -0.068747044 4288159811
0.87756318 -0.11495683 -0.068791866 4288291140
0.87703055 -0.11597431 -0.068004131 4288356933
0.87707168 -0.11701896 -0.068048954 4288290885
0.87653887 -0.11803368 -0.067260981 4288093506
0.87657994 -0.11907741 -0.067305803 4288093761
0.87662107 -0.12012114 -0.067350566 4287896382
0.87666214 -0.12116487 -0.067395329 4287896382
0.87670326 -0.12220861 -0.067440093 4288027968
0.87674433 -0.12325235 -0.067484856 4288092990
0.87678546 -0.12429607 -0.067529619 4287895611
0.87797481 -0.12541261 -0.069240332 4287829817
0.87801594 -0.1264582 -0.069285214 4287829817
0.87863141 -0.12754202 -0.07016319 4287961146
0.88039541 -0.12870607 -0.072707474 4287961146
0.88101095 -0.12979543 -0.07358557 4287895099
0.88162667 -0.13088664 -0.074463844 4287763513
0.88166809 -0.13193776 -0.074508965 4287829306
0.88458151 -0.13320321 -0.07872045 4287960892
0.88519758 -0.13430272 -0.079599082 4288025915
0.88638812 -0.1354488 -0.081311107 4287763256
0.92063338 -0.14699036 -0.13086104 4286781764
0.92067719 -0.14810333 -0.13090885 4290469771
0.92187071 -0.14932415 -0.13262403 4294092754
0.92306429 -0.15054867 -0.13433945 4293701849
0.92425817 -0.15177689 -0.13605499 4293245402
0.87733251 0.82595921 -0.08381933 4280823079
0.87791818 0.82561088 -0.084666193 4280823080
0.87850386 0.82526064 -0.085513115 4280823082
0.87854749 0.82415235 -0.085560679 4280823597
0.93436527 0.88806796 -0.16766942 4280889133
0.93495512 0.88761073 -0.16852081 4280954672
0.93554515 0.8871516 -0.16937244 4281086003
0.93722045 0.88817745 -0.1718241 4281151540
0.93726802 0.88697034 -0.17187583 4281347894
0.93785822 0.88650477 -0.17272758 4281347894
0.93844849 0.88603735 -0.17357957 4281609784
0.93849605 0.88482851 -0.17363143 4281676088
0.9390865 0.88435835 -0.17448354 4281741367
0.93913418 0.88314843 -0.17453539 4281807156
0.93973356 0.85339653 -0.17497957 4287466105
0.93923742 0.8514728 -0.17423022 4287400312
0.93928498 0.85026479 -0.17428195 4287531385
0.93878871 0.84834391 -0.17353261 4287663228
0.93883628 0.84713686 -0.17358434 4287794814
0.93942767 0.84664083 -0.1744374 4287860606
0.93947524 0.84543276 -0.17448926 4287926399
0.9395228 0.84422481 -0.17454112 4287926399
0.94541949 -0.046393886 -0.1703161 4287529077
0.94489449 -0.047583908 -0.16953516 4285357908
0.9437986 -0.048800278 -0.16792369 4284436552
0.87901825 -0.059383366 -0.073544979 4283381044
0.87905967 -0.060436331 -0.073590159 4283510835
0.87853009 -0.061509158 -0.072804332 4283180073
0.87800032 -0.062580153 -0.072018385 4283176996
0.87632811 -0.06368535 -0.069570184 4283503651
0.87636936 -0.064733699 -0.069615126 4283698720
0.87583941 -0.065798223 -0.068829 4284157218
0.87588066 -0.066845641 -0.068873882 4285076266
0.87592191 -0.067893073 -0.068918824 4285995059
0.87596309 -0.06894049 -0.068963766 4287045693
0.87600434 -0.069987923 -0.069008708 4287373118
0.87604558 -0.07103534 -0.06905359 4287634750
0.87608683 -0.072082773 -0.069098532 4287633724
0.87612808 -0.07313019 -0.069143474 4287764796
0.87616926 -0.074177623 -0.069188416 4287697977
0.87563896 -0.075232923 -0.068401754 4287894585
0.87568015 -0.076279432 -0.068446636 4287894329
0.87572134 -0.077325933 -0.068491518 4288025915
0.87519079 -0.078377545 -0.067704678 4287764026
0.87466025 -0.079427302 -0.066917956 4287764026
0.87470138 -0.080471963 -0.066962719 4287567417
0.87474251 -0.081516623 -0.067007542 4287632440
0.87478364 -0.082561284 -0.067052364 4287829819
0.87482476 -0.08360593 -0.067097187 4287962175
0.87429398 -0.084650159 -0.066310048 4288159554
0.87433511 -0.085693896 -0.066354811 4288093761
0.87437618 -0.086737633 -0.066399574 4287962175
0.87441725 -0.087781355 -0.066444337 4287896382
0.87445837 -0.088825092 -0.0664891 4287830589
0.87449944 -0.089868829 -0.066533864 4287962175
0.87454051 -0.090912566 -0.066578627 4288027968
0.87458163 -0.091956288 -0.06662339 4287764796
0.87462276 -0.093000025 -0.066668153 4287567417
0.87466383 -0.094043761 -0.066712916 4287501624
0.8747049 -0.095087498 -0.066757679 4287699003
0.87474602 -0.096131228 -0.066802502 4287699003
0.87478709 -0.097174957 -0.066847265 4287567417
0.87482816 -0.098218694 -0.066892028 4287436342
0.87544173 -0.099275783 -0.067769289 4287633721
0.87548286 -0.10032044 -0.067814052 4287765307
0.87609643 -0.10138029 -0.068691313 4287831100
0.87671018 -0.10244198 -0.069568813 4287633721
0.87675136 -0.10348848 -0.069613695 4287633721
0.87621993 -0.10451703 -0.068825841 4287699260
0.8768338 -0.10558148 -0.06970346 4287830846
0.87687498 -0.10662799 -0.069748342 4287962943
0.87691617 -0.10767449 -0.069793224 4288028736
0.87638456 -0.10869935 -0.069005251 4287962943
0.87642574 -0.10974493 -0.069050074 4287897150
0.87589413 -0.110767 -0.06826216 4287831360
0.87650806 -0.11183608 -0.069139779 4287897153
0.87597638 -0.11285631 -0.068351746 4288094018
0.87601751 -0.11390097 -0.068396568 4288094018
0.87605864 -0.11494563 -0.068441391 4288160065
0.87609977 -0.11599029 -0.068486154 4288160065
0.87556785 -0.1170059 -0.067697823 4288028225
0.87560892 -0.11804964 -0.067742586 4287896383
0.87507689 -0.11906248 -0.066954136 4287962175
0.87511796 -0.1201053 -0.066998839 4288027968
0.87515897 -0.1211481 -0.067043543 4288093759
0.87520003 -0.12219092 -0.067088306 4288093759
0.8752411 -0.12323373 -0.067133009 4288092989
0.87585551 -0.12431203 -0.068011165 4287829817
0.87646991 -0.1253922 -0.068889439 4287764024
0.87708437 -0.1264742 -0.069767654 4287895610
0.87769902 -0.12755802 -0.070646048 4287895353
0.87946057 -0.1287221 -0.073191583 4287961146
0.88007528 -0.1298115 -0.074070096 4287960892
0.88069016 -0.13090271 -0.074948847 4287960892
0.88073152 -0.13195382 -0.074993908 4288091708
0.88421446 -0.13326222 -0.080041289 4288091708
0.88540334 -0.13440648 -0.081754088 4287960122
0.88659233 -0.13555443 -0.083467007 4287828536
0.91849387 -0.14690316 -0.12970638 4289023351
0.91853762 -0.14801426 -0.12975407 4292779204
0.9203034 -0.14928722 -0.13230419 4293704667
0.92149544 -0.15051086 -0.13402045 4293049303
0.92153937 -0.15162657 -0.13406837 4293842154
0.87143266 0.82020903 -0.077085197 4281019178
0.87580544 0.82518321 -0.083530188 4280888359
0.87693149 0.82559395 -0.085177183 4280954666
0.87156242 0.8169145 -0.07722652 4281020719
0.87810129 0.82489169 -0.086871862 4280824367
0.93383557 0.88879567 -0.16902447 4280889135
0.9344247 0.88833749 -0.16987646 4280954673
0.93501395 0.88787752 -0.17072856 4281085748
0.93614501 0.88815898 -0.17238104 4281282870
0.93619251 0.88695186 -0.17243278 4281413686
0.93624002 0.88574481 -0.17248452 4281347893
0.93682945 0.88527834 -0.17333686 4281543991
0.93687701 0.88407028 -0.1733886 4281675832
0.93692458 0.88286227 -0.17344046 4281675574
0.93751413 0.88239211 -0.17429292 4281741363
0.9382087 0.85024631 -0.17483938 4287662714
0.93825626 0.8490383 -0.17489123 4287728507
0.93830377 0.84783036 -0.17494297 4287794300
0.93835133 0.84662235 -0.17499483 4287794300
0.94495511 -0.046381615 -0.17168272 4288581765
0.94386095 -0.047601644 -0.17007041 4286015838
0.94276673 -0.048817985 -0.16845798 4285028690
0.87922055 -0.059356052 -0.075693488 4282986801
0.87926203 -0.060410861 -0.075738788 4283577655
0.87873334 -0.061485529 -0.074952602 4283510065
0.87820441 -0.062558353 -0.074166298 4283309865
0.87596446 -0.063683361 -0.07088542 4283438628
0.87600577 -0.064732626 -0.070930421 4283567391
0.8754766 -0.065798074 -0.070143819 4283828509
0.87551785 -0.066846423 -0.070188761 4284484643
0.87555915 -0.067894772 -0.070233703 4285272105
0.8756004 -0.068943121 -0.070278704 4286388020
0.8756417 -0.069991469 -0.070323646 4286912824
0.87568295 -0.071039811 -0.070368648 4287371578
0.8751536 -0.072098792 -0.069581807 4287567674
0.87519485 -0.073146209 -0.069626749 4287632696
0.87523609 -0.074193634 -0.06967169 4287434805
0.87470657 -0.075248927 -0.068884611 4287630900
0.87474775 -0.076295421 -0.068929493 4287762486
0.87478894 -0.077341929 -0.068974376 4287828536
0.87425923 -0.078393534 -0.068187118 4287566134
0.87430042 -0.079439111 -0.068232 4287697720
0.87377065 -0.080487937 -0.067444742 4287764026
0.87381178 -0.08153259 -0.067489564 4287764026
0.87385291 -0.082577251 -0.067534387 4287829819
0.87389404 -0.083621897 -0.06757915 4288027968
0.87393516 -0.084666558 -0.067623973 4288291140
0.87397629 -0.085711211 -0.067668796 4288027968
0.87344623 -0.086753584 -0.06688118 4287896382
0.87348729 -0.087797306 -0.066925943 4287764796
0.87352842 -0.088841043 -0.066970706 4287764796
0.87356949 -0.08988478 -0.067015469 4287896382
0.87361062 -0.090928517 -0.067060232 4287830589
0.87365168 -0.091972239 -0.067104995 4287633210
0.87369281 -0.093015976 -0.067149758 4287435831
0.87373388 -0.094059713 -0.067194521 4287435831
0.87377495 -0.09510345 -0.067239285 4287633210
0.87381607 -0.09614718 -0.067284048 4287633467
0.87385714 -0.097190909 -0.067328811 4287567674
0.87389821 -0.098234646 -0.067373574 4287567928
0.87451094 -0.099291749 -0.068251252 4287633721
0.87455207 -0.1003364 -0.068296075 4287765307
0.87516487 -0.10139627 -0.069173753 4287896893
0.87520599 -0.10244185 -0.069218636 4287634232
0.87524718 -0.10348743 -0.069263458 4287700025
0.87528831 -0.10453301 -0.069308281 4287633978
0.87532949 -0.10557859 -0.069353163 4287633978
0.87537068 -0.10662417 -0.069397986 4287765564
0.87541181 -0.10766975 -0.069442868 4288028736
0.875453 -0.10871533 -0.069487691 4288094529
0.87549418 -0.10976091 -0.069532514 4287831357
0.87496334 -0.11078297 -0.068744123 4287699773
0.87500447 -0.11182762 -0.068788946 4287699773
0.8750456 -0.11287228 -0.068833768 4287765566
0.87508672 -0.11391694 -0.068878591 4287831359
0.87455571 -0.11493438 -0.068089902 4287962686
0.87459677 -0.11597811 -0.068134665 4287896893
0.87406564 -0.11699281 -0.067345798 4287896639
0.87410671 -0.11803561 -0.067390561 4287896639
0.87414771 -0.11907843 -0.067435265 4288027966
0.87418878 -0.12012124 -0.067480028 4288093759
0.87365752 -0.1211313 -0.066691101 4288159552
0.87427092 -0.12220686 -0.067569494 4288093759
0.87431198 -0.12324967 -0.067614198 4288092989
0.87492555 -0.12432798 -0.06849277 4287961403
0.87611163 -0.12544459 -0.070205212 4287961403
0.87729794 -0.12656486 -0.071917951 4287961403
0.87791175 -0.12765059 -0.072796762 4287829560
0.87967092 -0.12881655 -0.075343668 4287895353
0.87971228 -0.12986766 -0.07538873 4287961146
0.88032639 -0.13095982 -0.076267958 4288026939
0.8809405 -0.13205385 -0.077147067 4288157501
0.88327307 -0.13327837 -0.080528855 4288025915
0.88446021 -0.13442266 -0.082242489 4287894072
0.88564759 -0.13557065 -0.083956301 4287828536
0.91750389 -0.14692014 -0.1302191 4291786916
0.91754764 -0.14803125 -0.13026667 4293304778
0.91931093 -0.14930426 -0.1328181 4292980433
0.92050135 -0.15052791 -0.13453531 4293510623
0.92054528 -0.15164362 -0.13458312 4294767099
0.87045425 0.82019222 -0.077591896 4281608234
0.87049747 0.819094 -0.077638984 4281281064
0.87054068 0.81799591 -0.077686131 4281282091
0.87058395 0.81689769 -0.077733219 4281414193
0.93478435 0.895383 -0.17262733 4281019955
0.93483192 0.89417595 -0.17267907 4280954417
0.93487942 0.89296883 -0.17273092 4280888881
0.93492693 0.89176178 -0.17278266 4280954672
0.93443352 0.88980949 -0.17203367 4281020210
0.93448097 0.88860333 -0.1720854 4281151541
0.93452847 0.88739717 -0.17213714 4281348663
0.93457597 0.88619101 -0.17218888 4281545272
0.93462348 0.88498485 -0.17224061 4281479479
0.93521208 0.88451934 -0.17309332 4281609784
0.93525964 0.88331223 -0.17314506 4281741368
0.93530715 0.88210517 -0.17319691 4281807161
0.93535465 0.88089812 -0.17324865 4282135866
0.93648463 0.88116473 -0.17490256 4282399290
0.9365322 0.87995583 -0.17495441 4283057214
0.944489 -0.046369381 -0.17305028 4287989628
0.94339651 -0.047590312 -0.17143714 4286344803
0.94173485 -0.048835691 -0.1689924 4287133808
0.87941957 -0.059328794 -0.077843904 4282856499
0.87946117 -0.060385451 -0.077889204 4283250743
0.87893325 -0.061461955 -0.077102602 4283446583
0.87840527 -0.062536605 -0.076315939 4283312430
0.87559909 -0.063681409 -0.072201431 4283178534
0.87564039 -0.064731598 -0.072246492 4283241763
0.87511224 -0.06579794 -0.071459591 4283371551
0.87458378 -0.066862449 -0.070672512 4283632927
0.87462509 -0.06791079 -0.070717454 4284354596
0.87466639 -0.068959147 -0.070762396 4285206826
0.87470764 -0.070007488 -0.070807397 4286060338
0.87474889 -0.071055844 -0.070852339 4286782264
0.87479019 -0.072104186 -0.070897341 4287175739
0.87426156 -0.07316222 -0.070110023 4287305783
0.8743028 -0.074209645 -0.070154965 4287304243
0.87434405 -0.07525707 -0.070199907 4287303473
0.87381536 -0.076311424 -0.069412351 4287434545
0.87385654 -0.077357933 -0.069457233 4287566388
0.87332761 -0.078409515 -0.068669558 4287434802
0.8733688 -0.079455093 -0.06871444 4287566134
0.87340993 -0.08050067 -0.068759263 4287698233
0.872881 -0.081548557 -0.067971587 4287698233
0.87292212 -0.082593217 -0.06801635 4287699003
0.87296325 -0.083637871 -0.068061173 4288092991
0.87300438 -0.084682532 -0.068105996 4288290370
0.8730455 -0.085727185 -0.068150818 4287896382
0.87308663 -0.086771846 -0.068195581 4287699003
0.87312776 -0.087816499 -0.068240404 4287633210
0.87316889 -0.08886116 -0.068285227 4287699003
0.87321001 -0.089905813 -0.06833005 4287633210
0.87325114 -0.090950467 -0.068374813 4287501624
0.87329227 -0.091995127 -0.068419635 4287370038
0.87276286 -0.093031935 -0.067631364 4287238452
0.87280393 -0.094075672 -0.067676127 4287304245
0.87284499 -0.095119409 -0.06772089 4287501624
0.87288612 -0.096163139 -0.067765653 4287436088
0.87292725 -0.097206868 -0.067810416 4287370295
0.87296832 -0.098250605 -0.067855179 4287436599
0.87358016 -0.099307723 -0.068733275 4287502392
0.87362128 -0.10035238 -0.068778098 4287568185
0.87423325 -0.10141225 -0.069656193 4287568185
0.87427443 -0.10245784 -0.069701076 4287634232
0.87431556 -0.10350341 -0.069745898 4287700025
0.87435675 -0.10454899 -0.069790721 4287765564
0.87439793 -0.10559458 -0.069835603 4287633978
0.87443906 -0.10664015 -0.069880426 4287503160
0.87448025 -0.10768573 -0.069925308 4287766332
0.87452143 -0.10873131 -0.069970131 4287897918
0.87456256 -0.10977689 -0.070014954 4287634746
0.87403256 -0.11079894 -0.069226146 4287503164
0.87407368 -0.11184359 -0.069270968 4287437114
0.87411481 -0.11288825 -0.069315791 4287436856
0.87415594 -0.11393292 -0.069360614 4287502392
0.87362581 -0.11495034 -0.068571448 4287634233
0.87366688 -0.11599407 -0.068616211 4287765818
0.87370795 -0.11703781 -0.068660975 4287896639
0.87374908 -0.11808155 -0.068705738 4287896639
0.8732186 -0.11909436 -0.067916453 4287962173
0.87325966 -0.12013718 -0.067961156 4288093759
0.87330073 -0.12117998 -0.068005919 4288093757
0.87391341 -0.12225648 -0.06888485 4288027964
0.87395453 -0.12330022 -0.068929613 4288159036
0.87456721 -0.12437947 -0.069808662 4288159036
0.87632346 -0.12553346 -0.072356343 4288093243
0.87693644 -0.12661828 -0.073235512 4287830072
0.87754947 -0.12770492 -0.074114859 4287763767
0.8793062 -0.12887183 -0.076663136 4287829560
0.87934762 -0.12992387 -0.076708257 4287895099
0.87996083 -0.13101697 -0.077587783 4287960892
0.88000232 -0.13206995 -0.077632904 4288091708
0.86893624 0.81941551 -0.077298164 4282066218
0.86897939 0.81831825 -0.077345192 4281542697
0.86902261 0.81722099 -0.07739228 4281346859
0.86906582 0.81612372 -0.077439308 4281282351
0.93316889 0.89461565 -0.17238319 4281151794
0.93321639 0.89340949 -0.17243493 4281020208
0.93380398 0.89295036 -0.17328787 4280954417
0.9333114 0.89099723 -0.1725384 4280954674
0.93335885 0.88979107 -0.17259014 4280954674
0.93340635 0.88858491 -0.17264187 4281086003
0.93345386 0.88737875 -0.17269361 4281283126
0.9335013 0.88617259 -0.17274535 4281611065
0.93354881 0.88496643 -0.17279708 4281611065
0.93413663 0.88450086 -0.17365026 4281741624
0.93418413 0.88329375 -0.173702 4281807416
0.93423164 0.88208669 -0.17375386 4282135868
0.93427914 0.88087964 -0.17380559 4282465087
0.93486708 0.88040942 -0.17465878 4282859585
0.94402122 -0.046357173 -0.17441857 4287068526
0.94236213 -0.047608059 -0.17197287 4286739561
0.94127125 -0.048825264 -0.17035878 4288647305
0.88079417 -0.060318593 -0.081705689 4283119157
0.8802672 -0.061398771 -0.080918849 4283644474
0.87974024 -0.062477093 -0.080132008 4283642421
0.87807578 -0.063589558 -0.07768029 4283179817
0.87754852 -0.064662337 -0.076893091 4283176737
0.87531489 -0.065781705 -0.073608637 4283371806
0.87535626 -0.066832826 -0.073653698 4283633438
0.87482876 -0.067898236 -0.072866201 4284156959
0.87430125 -0.068961799 -0.072078764 4284746530
0.87434256 -0.070011064 -0.072123766 4285665322
0.87438387 -0.071060337 -0.072168767 4286387761
0.87385613 -0.072120212 -0.071381032 4287109944
0.87389737 -0.073168561 -0.071425974 4287568185
0.87336963 -0.074225657 -0.070638239 4287698488
0.87284172 -0.07528092 -0.069850326 4287697461
0.8728829 -0.076327421 -0.069895208 4287499825
0.87292415 -0.077373922 -0.06994009 4287631411
0.87239605 -0.078425497 -0.069151998 4287631411
0.87243718 -0.079471081 -0.06919688 4287631927
0.87190908 -0.08051987 -0.068408787 4287632440
0.87195021 -0.081564531 -0.06845355 4287567417
0.87199134 -0.082609192 -0.068498373 4287633467
0.87203246 -0.083653837 -0.068543196 4287896127
0.87207359 -0.084698498 -0.068588018 4287961920
0.87154526 -0.085741766 -0.067799568 4287896382
0.87158638 -0.086785503 -0.067844331 4287633210
0.87162745 -0.087829225 -0.067889094 4287435831
0.87166852 -0.088872962 -0.067933857 4287567417
0.87170964 -0.089916699 -0.067978621 4287501369
0.87175071 -0.090960436 -0.068023384 4287303990
0.87179184 -0.092004158 -0.068068147 4287369783
0.87126309 -0.093040034 -0.067279398 4287435576
0.87130415 -0.094082847 -0.067324102 4287370295
0.87134522 -0.09512566 -0.067368865 4287370295
0.87138629 -0.096168466 -0.067413568 4287238709
0.87142736 -0.097211279 -0.067458332 4287107123
0.87203836 -0.098266564 -0.068336785 4287239220
0.87207943 -0.099310301 -0.068381548 4287568185
0.87212056 -0.10035404 -0.068426311 4287633978
0.87273169 -0.101413 -0.069304883 4287436854
0.87277281 -0.10245766 -0.069349706 4287371317
0.87281394 -0.10350231 -0.069394529 4287503414
0.87342519 -0.10456498 -0.070273161 4287700539
0.87346631 -0.10561056 -0.070318043 4287700539
0.8735075 -0.10665614 -0.070362866 4287634746
0.87354869 -0.10770172 -0.070407748 4287700539
0.87358981 -0.1087473 -0.070452571 4287700539
0.873631 -0.10979288 -0.070497394 4287634746
0.87310183 -0.11081491 -0.069708169 4287568955
0.87314296 -0.11185956 -0.069752991 4287503162
0.87318408 -0.11290422 -0.069797754 4287370806
0.87322521 -0.11394888 -0.069842577 4287173427
0.87326634 -0.11499353 -0.0698874 4287305267
0.87330747 -0.1160382 -0.069932222 4287634232
0.872778 -0.11705377 -0.06914258 4287831100
0.87281913 -0.11809751 -0.069187343 4287699515
0.87286019 -0.11914124 -0.069232106 4287962171
0.87290132 -0.12018497 -0.069276869 4288093757
0.87294239 -0.1212287 -0.069321632 4288093757
0.87355423 -0.12230613 -0.070201039 4288027964
0.87359536 -0.12335079 -0.070245862 4288224829
0.87420732 -0.12443098 -0.071125269 4288290622
0.87596112 -0.12558594 -0.073674262 4288027450
0.87657332 -0.12667169 -0.074554026 4287698485
0.87775648 -0.12779757 -0.076268554 4287763767
0.87779784 -0.12884869 -0.076313674 4287829560
0.8795523 -0.13002026 -0.078863382 4287895099
0.87959379 -0.13107415 -0.078908563 4287960892
0.87963527 -0.13212803 -0.078953743 4288157502
0.86795861 0.81939876 -0.077804446 4283113513
0.86800176 0.8183015 -0.077851474 4282196776
0.86804497 0.81720424 -0.077898562 4281673514
0.86808819 0.81610698 -0.07794559 4281412654
0.93263346 0.89534611 -0.17374122 4280823858
0.93268096 0.89413905 -0.17379296 4280954931
0.93272847 0.89293194 -0.17384481 4280954674
0.93277597 0.89172488 -0.17389655 4280823089
0.93228418 0.88977265 -0.17314672 4280757295
0.93233168 0.88856649 -0.17319846 4280888624
0.93237919 0.88736033 -0.1732502 4281151539
0.93242663 0.88615417 -0.17330194 4281479478
0.93247414 0.88494802 -0.17335367 4281479733
0.93306112 0.88448244 -0.17420721 4281544756
0.93310863 0.88327533 -0.17425895 4281610803
0.93315619 0.88206828 -0.1743108 4282005046
0.9332037 0.88086122 -0.17436254 4282399802
0.94189531 -0.047596756 -0.1733408 4287134319
0.94023854 -0.048842985 -0.17089355 4290028443
0.88041729 -0.060314056 -0.08302772 4282922548
0.87989116 -0.061395146 -0.082240462 4283251000
0.87936503 -0.062474389 -0.081453085 4283578425
0.87770307 -0.06358771 -0.079000235 4283116334
0.8771767 -0.064661421 -0.078212678 4282915875
0.87665027 -0.065733276 -0.077425063 4282979871
0.87498778 -0.06683369 -0.074971676 4283240990
0.87446111 -0.067900009 -0.074183762 4283371036
0.87393439 -0.068964481 -0.073395789 4283829277
0.87340766 -0.070027106 -0.072607875 4284288545
0.87344903 -0.071076378 -0.072652876 4285010213
0.87235391 -0.072146825 -0.07103169 4285863982
0.8723951 -0.073194243 -0.071076632 4286782516
0.87243634 -0.074241668 -0.071121573 4287307064
0.87134099 -0.075304747 -0.06949991 4287633976
0.87138212 -0.076350316 -0.069544733 4287370547
0.8714233 -0.077395901 -0.069589615 4287435059
0.87089604 -0.07844653 -0.068801165 4287697975
0.87093717 -0.079491183 -0.068845987 4287764024
0.8709783 -0.080535844 -0.06889081 4287764024
0.87045091 -0.081582785 -0.068102062 4287829819
0.87049204 -0.082626514 -0.068146825 4287895869
0.87053311 -0.083670244 -0.068191588 4288027199
0.87057424 -0.084713981 -0.068236351 4287895613
0.8706153 -0.085757717 -0.068281174 4287830589
0.87008768 -0.086799115 -0.067492187 4287633210
0.87012875 -0.087841928 -0.06753695 4287370038
0.87016976 -0.088884741 -0.067581654 4287435831
0.87021083 -0.089927547 -0.067626357 4287435576
0.87025189 -0.09097036 -0.06767112 4287369783
0.87029296 -0.092013173 -0.067715824 4287567162
0.87033397 -0.093055978 -0.067760587 4287698748
0.87037504 -0.094098791 -0.06780529 4287567675
0.86984712 -0.095131889 -0.067016125 4287436089
0.87045717 -0.09618441 -0.067894757 4287173429
0.87049824 -0.097227223 -0.06793946 4287041843
0.87053925 -0.098270036 -0.067984223 4287239220
0.87114948 -0.099326253 -0.068863153 4287568185
0.87119061 -0.10036999 -0.068907917 4287503162
0.87123168 -0.10141371 -0.06895268 4287371574
0.87184203 -0.10247363 -0.069831729 4287239988
0.87188315 -0.10351828 -0.069876552 4287437621
0.87192428 -0.10456294 -0.069921374 4287568953
0.87196541 -0.1056076 -0.069966137 4287634746
0.87200654 -0.10665226 -0.07001096 4287635000
0.87204766 -0.10769691 -0.070055783 4287700793
0.87265825 -0.10876328 -0.070935011 4287766586
0.87269944 -0.10980886 -0.070979834 4287635000
0.87217104 -0.11083088 -0.070190191 4287503160
0.87221217 -0.11187553 -0.070235014 4287568953
0.8722533 -0.11292019 -0.070279777 4287502646
0.87229443 -0.11396486 -0.0703246 4287239474
0.87233555 -0.11500951 -0.070369422 4287238959
0.87180698 -0.11602598 -0.069579422 4287502131
0.87241781 -0.11709882 -0.070459008 4287567926
0.87245893 -0.11814348 -0.070503831 4287436341
0.87250006 -0.11918813 -0.070548654 4287830839
0.87311107 -0.12026465 -0.071428299 4288028218
0.8731522 -0.12131023 -0.071473181 4288224827
0.87376338 -0.1223895 -0.072353065 4288159034
0.87494451 -0.12350528 -0.07406801 4288159034
0.87498575 -0.12455363 -0.074113011 4288159034
0.875027 -0.12560198 -0.074157953 4287961657
0.87734872 -0.12679991 -0.077543676 4287698485
0.87796015 -0.12789029 -0.078423977 4287698231
0.87857181 -0.12898248 -0.079304397 4287895610
0.87865478 -0.13109025 -0.079394817 4287895099
0.87869626 -0.13214414 -0.079440057 4288091709
0.86590523 0.81786209 -0.076707959 4284161836
0.86594838 0.81676668 -0.076754928 4283047978
0.86599153 0.81567127 -0.076801896 4282262571
0.86603463 0.81457585 -0.076848865 4281804847
0.93130451 0.88734186 -0.17380667 4281019951
0.93189061 0.88687807 -0.17466056 4281348146
0.93193811 0.88567102 -0.17471242 4281282351
0.93198568 0.88446397 -0.17476416 4281282093
0.93203318 0.88325685 -0.17481589 4281545263
0.93208069 0.8820498 -0.17486775 4281939763
0.93212825 0.88084275 -0.17491949 4282400055
0.93637234 -0.049001247 -0.16726446 4290488994
0.93471766 -0.050237272 -0.16481543 4290752166
0.93306273 -0.051467761 -0.16236627 4288975756
0.87947172 -0.060330279 -0.083517373 4283119414
0.87894642 -0.061411358 -0.082729697 4282987571
0.87898815 -0.062471703 -0.082775176 4283513145
0.87789571 -0.063567959 -0.081154227 4283708984
0.87680322 -0.064660519 -0.0795331 4283377196
0.87627763 -0.065733299 -0.078745127 4283111714
0.87405044 -0.066849776 -0.075457096 4283307294
0.87409186 -0.067901812 -0.075502217 4283568926
0.87299871 -0.068980537 -0.073880374 4283829788
0.87247282 -0.070043147 -0.073092043 4283959835
0.87251413 -0.071092419 -0.073137045 4284549918
0.87142068 -0.072162837 -0.071514964 4285337381
0.87146193 -0.073210254 -0.071559906 4286322222
0.87150311 -0.074257687 -0.071604848 4287043892
0.87040937 -0.075320728 -0.06998235 4287634232
0.87045056 -0.076366305 -0.070027173 4287501620
0.87049168 -0.07741189 -0.070072055 4287566388
0.86996531 -0.078462496 -0.069283187 4287829817
0.87000644 -0.079507157 -0.06932795 4287961403
0.86947989 -0.080555007 -0.068538904 4287633208
0.86952102 -0.081598744 -0.068583667 4287829819
0.86956209 -0.082642473 -0.06862843 4288027198
0.86903536 -0.08368662 -0.067839146 4287830334
0.86907643 -0.084729433 -0.067883909 4287698748
0.8691175 -0.085772239 -0.067928612 4287567417
0.86915857 -0.086815052 -0.067973375 4287501624
0.86919963 -0.087857865 -0.068018079 4287370038
0.86867273 -0.088896483 -0.067228734 4287435831
0.86871374 -0.08993838 -0.067273378 4287435576
0.86875474 -0.090980262 -0.067318082 4287369783
0.86879575 -0.092022151 -0.067362785 4287632955
0.86883682 -0.093064032 -0.067407489 4287830334
0.86887783 -0.094105922 -0.067452133 4287699261
0.86891884 -0.095147818 -0.067496836 4287436089
0.86895984 -0.0961897 -0.06754154 4287239222
0.86900085 -0.097231589 -0.067586243 4287239222
0.86904186 -0.098273478 -0.067630887 4287174199
0.8696512 -0.099328786 -0.068510056 4287305785
0.86969227 -0.10037159 -0.068554819 4287371576
0.86973333 -0.1014144 -0.068599522 4287371574
