# .PCD v0.7 - Point Cloud Data file format
VERSION 0.7
FIELDS x y z rgba
SIZE 4 4 4 4
TYPE F F F U
COUNT 1 1 1 1
WIDTH 1053
HEIGHT 1
VIEWPOINT 0 0 0 1 0 0 0
POINTS 1053
DATA ascii
0.74415272 0.076238863 -0.10760659 4287703111
0.74604374 0.075778775 -0.11116803 4288162894
0.7465471 0.074886017 -0.11209184 4288360273
0.74705052 0.07399141 -0.11301553 4288361043
0.74801683 0.073234878 -0.11481887 4288229714
0.74944597 0.072613649 -0.1175018 4288098646
0.74948698 0.071572684 -0.11754644 4287771220
0.74999076 0.070668869 -0.11847073 4287575897
0.75234616 0.070308082 -0.12291342 4287248985
0.75331312 0.069532149 -0.12471753 4287447394
0.75381738 0.068618201 -0.12564218 4287843950
0.75617361 0.068236165 -0.13008583 4288765823
0.75714105 0.067447342 -0.13189054 4289292680
0.75764573 0.066523217 -0.1328156 4289818770
0.76000279 0.066119961 -0.1372602 4290082199
0.76097077 0.065318219 -0.13906538 4290543010
0.7614758 0.064383946 -0.13999081 4290214558
0.76337045 0.06383156 -0.14355624 4289755545
0.76433897 0.063017838 -0.14536202 4288966029
0.76484436 0.062074311 -0.14628804 4288571528
0.76720303 0.061629541 -0.15073431 4288506762
0.76724541 0.060554437 -0.15078044 4289166233
0.76775104 0.059602611 -0.15170658 4290812086
0.76825684 0.058648966 -0.15263295 4291996875
0.77015305 0.058057822 -0.15620005 4292720855
0.77112257 0.057218246 -0.15800703 4293049304
0.77162868 0.056255348 -0.15893376 4293310423
0.77398914 0.055765368 -0.16338193 4293502668
0.77495927 0.054912858 -0.1651895 4292905142
0.77592939 0.054056652 -0.16699708 4292503972
0.77875435 0.053660445 -0.17232668 4291777167
0.77972496 0.052793168 -0.17413473 4290790015
0.78115946 0.052036278 -0.17682338 4290200185
0.77942377 0.14240396 -0.1787703 4286742392
0.77900732 0.14110866 -0.17794001 4286874491
0.77813077 0.13962823 -0.17623174 4286807674
0.77771419 0.13833758 -0.17540133 4286544503
0.7772975 0.13704875 -0.17457068 4286478196
0.77642065 0.13557756 -0.17286205 4286346610
0.77554357 0.13411006 -0.17115331 4285689194
0.77420616 0.13246393 -0.16856635 4285031264
0.77378905 0.13118616 -0.16773534 4284701275
0.77291155 0.12972975 -0.16602612 4284438103
0.77111334 0.12791786 -0.16256034 4284503381
0.77023536 0.12647069 -0.16085064 4284173646
0.76935744 0.12502718 -0.15914083 4283515714
0.76617706 0.12270334 -0.15303946 4283384642
0.7648381 0.12109595 -0.15045071 4283779915
0.76211733 0.11896919 -0.14522672 4283911757
0.76123846 0.11754971 -0.14351583 4284108622
0.75989878 0.11596077 -0.14092636 4283779400
0.75948018 0.11472178 -0.1400938 4283515714
0.74616277 0.10868897 -0.11466247 4283186749
0.74620366 0.10764986 -0.11470699 4282791991
0.74624455 0.10661074 -0.11475158 4282923064
0.74536395 0.1052346 -0.1130389 4283448639
0.74494392 0.10402975 -0.11220467 4283645504
0.74452394 0.10282675 -0.11137044 4284105029
0.743182 0.10129411 -0.1087786 4284565067
0.74322265 0.10026144 -0.10882288 4285419349
0.74280238 0.099064894 -0.1079883 4285813594
0.74192101 0.097707234 -0.10627478 4286141278
0.74150056 0.09651529 -0.10544002 4286271837
0.74154103 0.095486321 -0.10548413 4286072404
0.7406593 0.094136961 -0.10377032 4285873229
0.74023873 0.09295056 -0.10293537 4286067782
0.72971159 0.087277271 -0.082803845 4286262595
0.72928989 0.08611577 -0.081967771 4286262338
0.72886813 0.084956147 -0.081131577 4286392643
0.72844636 0.083798356 -0.080295444 4286457923
0.72848582 0.082796149 -0.080338418 4286654532
0.72852522 0.081793956 -0.080381453 4286916677
0.729949 0.081247427 -0.08306253 4286916164
0.73137289 0.080695353 -0.085743666 4287047237
0.73233563 0.079987697 -0.087545812 4287309382
0.73237538 0.078978114 -0.087589085 4287506761
0.73564613 0.079005949 -0.093788981 4287572554
0.73614776 0.078137182 -0.094712019 4287506761
0.73711109 0.077412911 -0.09651494 4287572038
0.7431531 0.078284733 -0.10799378 4287703624
0.74365538 0.077398427 -0.10891759 4288031308
0.74415779 0.076510273 -0.10984159 4288228687
0.74604559 0.076048277 -0.11340481 4288228687
0.74654824 0.075153671 -0.1143291 4288360273
0.74705094 0.074257217 -0.11525339 4288426582
0.74709183 0.073219024 -0.11529791 4288492888
0.74944234 0.072875701 -0.11974192 4288296538
0.7499454 0.071970932 -0.12066662 4288297821
0.74998653 0.070927195 -0.12071139 4288298850
0.75233781 0.070564471 -0.12515628 4288169574
0.75330323 0.06978669 -0.12696135 4288565619
0.75380671 0.068870865 -0.12788653 4288830331
0.75615889 0.068486936 -0.13233232 4289292424
0.75666267 0.067563705 -0.13325787 4289622159
0.7571665 0.066638656 -0.13418329 4289359759
0.7595194 0.066234417 -0.13863003 4289162637
0.76002359 0.065301977 -0.13955593 4288834189
0.76052779 0.064367674 -0.14048183 4288307845
0.76288158 0.06394314 -0.14492929 4288176770
0.76338601 0.063001476 -0.14585555 4288177540
0.76389056 0.06205795 -0.14678192 4288835470
0.76624519 0.061613105 -0.15123034 4289889441
0.76628751 0.060537986 -0.15127647 4291535552
0.7667923 0.05958616 -0.15220308 4292392144
0.76729727 0.058632515 -0.15312994 4292787415
0.76919019 0.058041297 -0.1566987 4292853208
0.76969546 0.05708117 -0.15762579 4292326351
0.77066338 0.056238793 -0.1594336 4291796927
0.77301973 0.055748723 -0.16388392 4290805158
0.77398819 0.054896198 -0.16569233 4290207631
0.7749567 0.054039963 -0.16750085 4290202497
0.77777672 0.053643666 -0.17283297 4291383435
0.77874571 0.052776359 -0.17464185 4290790782
0.77971482 0.051905371 -0.17645097 4290463357
0.77714658 0.13961136 -0.17674148 4287333505
0.77673084 0.13832071 -0.17591059 4287267969
0.77631491 0.13703188 -0.17507958 4286939518
0.77543974 0.13556072 -0.17337012 4286478967
0.77456427 0.13409325 -0.17166042 4285688424
0.7732293 0.13244718 -0.16907215 4284569943
0.77281308 0.13116941 -0.16824079 4284240467
0.77193719 0.12971303 -0.16653061 4284240467
0.77014226 0.1279012 -0.16306317 4284964701
0.76926595 0.12645406 -0.16135263 4285885803
0.76838964 0.12501058 -0.15964198 4286214254
0.76521504 0.12268683 -0.15353763 4286082668
0.76387852 0.12107948 -0.15094769 4285621347
0.76116276 0.11895283 -0.14572108 4284897882
0.7602855 0.11753335 -0.14400935 4284437587
0.75894827 0.11594447 -0.14141858 4284109391
0.7585305 0.1147055 -0.14058554 4284109391
0.75857246 0.1136396 -0.14063132 4283977292
0.75815451 0.11240339 -0.13979793 4283582277
0.74456227 0.10210692 -0.11365098 4282921781
0.74506319 0.10123444 -0.11457461 4283711041
0.74510407 0.10019625 -0.11461914 4284434507
0.74468482 0.098995112 -0.11378443 4285091669
0.74426538 0.097795807 -0.11294955 4285683293
0.74384594 0.09659835 -0.11211467 4286011231
0.74342644 0.09540274 -0.11127961 4285945439
0.74300683 0.094208978 -0.11044449 4285879131
0.72985584 0.084556274 -0.085156202 4285088077
0.72989547 0.083549462 -0.085199356 4285153099
0.73039567 0.082695432 -0.086122215 4285021257
0.73043537 0.081687696 -0.086165428 4285151818
0.73047507 0.080679946 -0.086208642 4285217355
0.73143613 0.079972275 -0.088011622 4285348170
0.73147583 0.078962691 -0.088054955 4285347914
0.73474085 0.078990407 -0.094257772 4285478730
0.73524165 0.078121625 -0.095181286 4285478730
0.73620337 0.077397339 -0.096984982 4285806923
0.74223471 0.078268968 -0.10846937 4286070095
0.74273616 0.077382647 -0.10939366 4286135890
0.74323767 0.076494493 -0.11031806 4286464854
0.74512219 0.076032422 -0.11388302 4286595928
0.74562407 0.075137816 -0.11480772 4286859099
0.74612594 0.074241333 -0.11573237 4286990687
0.74616683 0.073203139 -0.1157769 4287188323
0.75174111 0.073832475 -0.12638545 4287451241
0.75224352 0.072921224 -0.12731075 4287977585
0.75274605 0.072008155 -0.12823629 4288305781
0.75232619 0.070820831 -0.12740088 4288568953
0.75282884 0.069905914 -0.12832642 4288568186
0.75379276 0.069123484 -0.13013256 4288897151
0.75567961 0.068604223 -0.13370013 4288700030
0.75618255 0.067680053 -0.13462591 4288371835
0.75714701 0.066885643 -0.13643265 4287780214
0.75903451 0.066348843 -0.14000082 4287452789
0.75953782 0.065415464 -0.14092708 4287651451
0.76004124 0.064480223 -0.14185345 4287718784
0.76192939 0.063926809 -0.14542246 4288903316
0.76243305 0.062985115 -0.14634907 4290088103
0.76339841 0.062167622 -0.14815664 4290943669
0.76528728 0.061596669 -0.15172637 4291470270
0.7653296 0.060521565 -0.1517725 4291866053
0.76583356 0.059569709 -0.15269959 4292521930
0.76587594 0.058493696 -0.15274572 4293176780
0.7682274 0.058024786 -0.15719724 4293764040
0.76873177 0.057064645 -0.1581248 4293033389
0.76969808 0.056222223 -0.15993345 4292042131
0.77205032 0.055732094 -0.16438603 4291251075
0.77301711 0.054879539 -0.16619527 4290855033
0.77398396 0.054023273 -0.16800451 4291775365
0.77679908 0.053626888 -0.17333925 4291514503
0.77776641 0.052759551 -0.17514896 4291122825
0.77873391 0.051888548 -0.17695892 4289286524
0.77670783 0.13757029 -0.17822468 4287399812
0.77537578 0.13591221 -0.1756357 4286939261
0.7749607 0.13462621 -0.17480409 4286017388
0.7731697 0.13279504 -0.17133582 4284833114
0.77275431 0.13151547 -0.17050397 4284766809
0.77188021 0.13005725 -0.1687932 4285885290
0.76962984 0.1280641 -0.16444504 4287595907
0.76921409 0.12679467 -0.16361284 4288385423
0.7683394 0.12534937 -0.16190135 4288714643
0.7647118 0.12284707 -0.15491486 4287925126
0.76383668 0.12141474 -0.15320289 4286477425
0.76112592 0.11928632 -0.1479739 4284700758
0.76025033 0.11786502 -0.14626133 4284305485
0.75937462 0.11644741 -0.14454877 4284437584
0.75849873 0.11503351 -0.14283597 4284503892
0.75854081 0.11396579 -0.14288175 4284241747
0.75858283 0.11289806 -0.14292765 4284306770
0.74455655 0.10242248 -0.11588877 4283053881
0.74505675 0.10154816 -0.116813 4282987577
0.74555701 0.10067197 -0.11773723 4283250236
0.74513865 0.099468075 -0.11690223 4283776066
0.74472016 0.098266013 -0.11606705 4284301897
0.74476111 0.09722688 -0.11611164 4284695885
0.74388313 0.095867418 -0.11439651 4284827471
0.74346441 0.094670914 -0.11356109 4284893264
0.74442434 0.093951203 -0.11536539 4285156436
0.73079753 0.085159414 -0.089140952 4286338913
0.73083729 0.084148906 -0.089184284 4286272095
0.7308771 0.083138399 -0.089227676 4286008667
0.73091686 0.082127891 -0.089271009 4286008154
0.75064099 0.078013502 -0.12668955 4287517802
0.75206286 0.077389382 -0.12937653 4287715181
0.75164402 0.076196559 -0.12854099 4287583595
0.75168538 0.075145446 -0.12858605 4287517802
0.75172681 0.074094318 -0.12863111 4287517804
0.75222856 0.073181219 -0.12955701 4287649390
0.75273025 0.072266273 -0.13048291 4287845487
0.75369251 0.071485661 -0.13228989 4287713901
0.7541945 0.07056611 -0.13321602 4287713133
0.75469655 0.069644712 -0.13414228 4287581291
0.75658023 0.069121696 -0.13771152 4287450220
0.75708252 0.068193845 -0.13863814 4287582319
0.75758481 0.067264132 -0.13956463 4287976822
0.75900853 0.066593863 -0.14225352 4288702343
0.75951117 0.065658621 -0.14318037 4289296534
0.76001382 0.064721517 -0.14410722 4289889954
0.76143801 0.064038344 -0.1467967 4290088619
0.76240158 0.063222654 -0.14860511 4290549683
0.76290464 0.06227728 -0.14953244 4291208125
0.76432937 0.061580233 -0.15222251 4291800518
0.7648325 0.060629301 -0.15314984 4291734467
0.7653358 0.059676521 -0.15407753 4291600828
0.76537824 0.058599584 -0.15412366 4291400369
0.76726454 0.058008261 -0.15769589 4290540440
0.76776814 0.057048105 -0.15862381 4290401671
0.76873279 0.056205653 -0.16043341 4290528637
0.77108091 0.055715464 -0.16488802 4290723706
0.77204609 0.054862879 -0.1666981 4291380609
0.77301127 0.054006584 -0.16850829 4291380607
0.77582145 0.053610109 -0.17384553 4291316611
0.77678716 0.052742757 -0.17565608 4290465150
0.77821422 0.051985733 -0.17834866 4290141576
0.77310675 0.13314286 -0.17360115 4285690476
0.77269226 0.13186145 -0.17276895 4286742139
0.77181983 0.13040143 -0.17105734 4287991949
0.76911587 0.12822697 -0.16582787 4288582802
0.7687009 0.12695661 -0.16499507 4288779154
0.76828599 0.12568814 -0.16416252 4288580746
0.76420701 0.12300735 -0.15629303 4287790460
0.76379156 0.12174993 -0.15545988 4286013024
0.76062769 0.11944482 -0.14934874 4284958797
0.76021188 0.11819666 -0.14851522 4284693570
0.7593379 0.11677723 -0.14680171 4285220170
0.75800562 0.11518937 -0.14420843 4285222993
0.7580477 0.11412071 -0.14425433 4285028438
0.75808978 0.11305206 -0.1443001 4284964185
0.75675702 0.11147525 -0.14170635 4284570710
0.75542408 0.10990397 -0.13911235 4284175184
0.75409085 0.10833826 -0.13651812 4283846219
0.75321585 0.10694467 -0.13480353 4283779914
0.74500597 0.10290369 -0.1190083 4283582535
0.74550545 0.10202657 -0.11993301 4283581508
0.746005 0.10114761 -0.12085789 4283515715
0.74558753 0.099940948 -0.12002248 4283449411
0.74517006 0.09873613 -0.11918706 4283252032
0.74475247 0.097533159 -0.11835146 4283119676
0.74341756 0.096011721 -0.11575532 4283251005
0.74345845 0.094973527 -0.11579984 4283184443
0.74625158 0.094885193 -0.12112647 4283644994
0.74537516 0.093526684 -0.11941051 4284303180
0.74495739 0.092328332 -0.11857468 4284895061
0.7449984 0.091287367 -0.11861938 4285223512
0.73173261 0.085762449 -0.093129337 4285354585
0.73177254 0.084748246 -0.093172848 4285616476
0.73181248 0.083734043 -0.09321636 4285616476
0.73185241 0.08271984 -0.093259871 4286010207
0.73740029 0.083516769 -0.10387129 4286009694
0.73744071 0.082491495 -0.10391527 4285943133
0.75158483 0.077514999 -0.13074291 4287255913
0.75162625 0.076462023 -0.13078809 4287386218
0.75120836 0.075269215 -0.12995219 4287188839
0.75170916 0.074356101 -0.13087845 4287056996
0.7522102 0.073441155 -0.13180494 4286925154
0.75271118 0.072524361 -0.13273132 4286859875
0.75321227 0.071605705 -0.13365781 4286794339
0.75371349 0.070685215 -0.13458455 4286663525
0.75421476 0.069762878 -0.13551116 4286599015
0.75563544 0.069105484 -0.13820088 4287520633
0.75613695 0.068177603 -0.13912785 4288179077
0.75663847 0.06724789 -0.14005482 4289298070
0.75805968 0.066577576 -0.1427449 4289824671
0.75856149 0.06564232 -0.14367211 4290153635
0.7590633 0.064705215 -0.14459944 4290153634
0.7609449 0.064149849 -0.1481719 4289956771
0.76144701 0.063206278 -0.14909947 4289956257
0.76194918 0.062260874 -0.15002716 4291204528
0.76383144 0.061688893 -0.15360022 4292516536
0.76387376 0.06061285 -0.15364635 4293298351
0.76437628 0.05966007 -0.15457439 4292438421
0.76487881 0.058705442 -0.15550256 4291381628
0.7667619 0.058113135 -0.15907645 4290787951
0.76726466 0.057152055 -0.16000497 4290852463
0.76776749 0.056189097 -0.16093326 4291313014
0.77057183 0.055817448 -0.16627216 4291379066
0.77107501 0.05484622 -0.16720104 4291511422
0.77203858 0.053989895 -0.16901195 4291249274
0.77530426 0.053709202 -0.17523384 4290660474
0.77626824 0.052840881 -0.17704535 4290006653
0.77677208 0.051854871 -0.17797482 4291526822
0.77354091 0.13257012 -0.17679524 4287860619
0.77267033 0.13110644 -0.17508292 4288452499
0.76997137 0.12892833 -0.16985095 4287991176
0.76910031 0.12747574 -0.16813815 4286082666
0.76822913 0.12602681 -0.16642523 4285027923
0.76598632 0.12405135 -0.16207206 4284763980
0.76420027 0.12226089 -0.15859854 4284762956
0.76195675 0.12030294 -0.15424466 4284432451
0.76108474 0.11887618 -0.15253079 4284496445
0.76021254 0.11745309 -0.15081668 4284694081
0.75842547 0.11568942 -0.14734197 4284827720
0.75801027 0.11444678 -0.14650786 4284830287
0.75713766 0.1130357 -0.14479327 4284898391
0.75580734 0.11145895 -0.14219809 4284833882
0.75447685 0.10988771 -0.1396029 4284570710
0.75314611 0.10832205 -0.13700736 4284307538
0.75227273 0.10692849 -0.13529193 4284306257
0.7518568 0.10570429 -0.13445687 4284043085
0.75052553 0.10415245 -0.13186073 4283844936
0.75010943 0.10293382 -0.13102543 4283844680
0.74923557 0.10155412 -0.12930954 4284238413
0.74836141 0.10017809 -0.12759328 4284172364
0.74794507 0.098966829 -0.12675774 4284039752
0.74707067 0.097597294 -0.12504143 4284039752
0.74665409 0.096390627 -0.12420553 4283972932
0.74532163 0.094869249 -0.12160808 4283907139
0.74444687 0.093510769 -0.11989123 4283841859
0.74402994 0.092312418 -0.11905503 4283907652
0.74407095 0.091271453 -0.11909968 4283907139
0.73544961 0.08626955 -0.10245055 4284037701
0.73594797 0.08539889 -0.10337543 4284300616
0.73598826 0.084374525 -0.10341936 4284629324
0.73648679 0.083501093 -0.10434437 4284760140
0.73744357 0.082775809 -0.10615057 4284824908
0.73794228 0.081897743 -0.10707587 4284955725
0.73798275 0.080869697 -0.10711998 4285217870
0.74960548 0.080368869 -0.12933064 4285742674
0.75010532 0.079461299 -0.13025713 4285742674
0.75014675 0.078409247 -0.13030231 4285808467
0.75156373 0.077782266 -0.13299179 4285940053
0.75160527 0.076727472 -0.13303697 4286662495
0.75210541 0.075812481 -0.13396382 4286925667
0.75260568 0.074895673 -0.13489079 4287123046
0.75310594 0.073977016 -0.13581765 4287255145
0.75314754 0.072919451 -0.13586307 4287913077
0.75364792 0.071998022 -0.13679016 4288308605
0.75323081 0.07080429 -0.13595378 4288835975
0.75373131 0.069881015 -0.13688099 4288771209
0.75514966 0.069222651 -0.13957202 4289100176
0.75519145 0.068161391 -0.13961744 4289297812
0.75569206 0.067231648 -0.14054489 4289428371
0.75756985 0.066691913 -0.14411819 4289429141
0.75807077 0.065755703 -0.14504588 4289626266
0.7585718 0.064817674 -0.1459738 4289364120
0.76045018 0.06426131 -0.14954782 4290087843
0.76095152 0.063316815 -0.15047598 4290153636
0.76145291 0.062370487 -0.15140414 4290086817
0.7628727 0.061672442 -0.15409672 4290148760
0.76337433 0.060720555 -0.15502512 4290142085
0.76387602 0.059766836 -0.15595365 4290136437
0.76391846 0.058688961 -0.1559999 4290197867
0.76579827 0.058096595 -0.15957558 4290458986
0.7663002 0.057135515 -0.16050434 4291115637
0.76726168 0.056292079 -0.16231573 4291378809
0.76960158 0.055800803 -0.16677463 4291379066
0.77056336 0.05494725 -0.16858637 4291182457
0.77106589 0.053973205 -0.16951573 4290985848
0.77432579 0.053692423 -0.1757406 4290988671
0.77528816 0.052824073 -0.17755294 4290467204
0.77579117 0.051838048 -0.17848289 4294026956
0.77301455 0.1327346 -0.17818439 4287332991
0.77214557 0.13127002 -0.17647111 4287200120
0.76899534 0.12891158 -0.17035639 4286079073
0.76858222 0.12763762 -0.16952312 4284563521
0.76771271 0.1261878 -0.16780925 4284232501
0.76501775 0.12403473 -0.1625737 4284429109
0.76323497 0.12224434 -0.15909851 4285085501
0.76053923 0.12011156 -0.153862 4285085245
0.76012516 0.11885972 -0.15302765 4285019450
0.75971109 0.1176097 -0.15219331 4285019963
0.75747085 0.11567303 -0.14783633 4285086526
0.75705647 0.11443042 -0.14700174 4285153859
0.75618547 0.11301937 -0.14528632 4285221194
0.75440103 0.11127328 -0.14180911 4285289041
0.7539863 0.1100399 -0.14097416 4285224790
0.75220138 0.10830583 -0.13749659 4285028951
0.75178635 0.10707889 -0.13666117 4284634965
0.75091451 0.10568813 -0.1349448 4284306257
0.74958575 0.10413631 -0.13234735 4283911756
0.74917042 0.10291772 -0.13151169 4283780427
0.74921191 0.10186382 -0.13155699 4283846220
0.74833959 0.100486 -0.12984014 4283912013
0.74792403 0.099272899 -0.12900412 4284174415
0.7479654 0.098221786 -0.12904918 4284371794
0.74663574 0.096693046 -0.12645078 4284306003
0.74530578 0.09516985 -0.12385207 4284043088
0.74443281 0.093809538 -0.12213445 4284173391
0.74401671 0.092609368 -0.12129784 4284238927
0.74405777 0.09156657 -0.1213426 4284238157
0.73590952 0.086714931 -0.10556698 4284367949
0.7364071 0.085841469 -0.10649234 4284433485
0.73644757 0.084814332 -0.10653639 4284564301
0.73694539 0.083938114 -0.10746205 4284695374
0.73744327 0.083060049 -0.10838759 4284760910
0.73794115 0.082180135 -0.10931337 4284760910
0.73798174 0.081150256 -0.10935754 4284761169
0.74912655 0.080497257 -0.13069737 4285090134
0.74916798 0.079445206 -0.13074255 4285418842
0.74966705 0.078535758 -0.13166952 4285747294
0.75062394 0.077766143 -0.1334784 4286010466
0.75066549 0.076711334 -0.1335237 4286471019
0.75116479 0.075796358 -0.13445103 4286865777
0.75166422 0.07487952 -0.13537836 4287194742
0.75170583 0.073822878 -0.13542366 4287523707
0.75220531 0.072903268 -0.13635099 4287852673
0.75270486 0.07198184 -0.13727856 4288247431
0.75320446 0.071058534 -0.13820612 4288443784
0.75324619 0.069999121 -0.13825154 4288575370
0.75466204 0.069339804 -0.14094388 4288574343
0.755162 0.068410046 -0.14187181 4288771209
0.75566196 0.067478456 -0.14279962 4288836232
0.75707829 0.066806205 -0.14549232 4289229450
0.75757849 0.065869085 -0.1464206 4289884559
0.75853699 0.065058865 -0.14823127 4290474129
0.75995392 0.06437277 -0.1509248 4290996108
0.76045442 0.063427351 -0.15185332 4291584908
0.76095498 0.062480055 -0.15278184 4291581056
0.76283079 0.061906122 -0.1563586 4291052402
0.76287323 0.060828231 -0.15640473 4290722156
0.76291567 0.059750356 -0.15645099 4290457957
0.76341653 0.058794759 -0.15737998 4291115117
0.76529312 0.058201455 -0.16095746 4291246190
0.76579428 0.057239391 -0.16188657 4291180656
0.76675403 0.056395017 -0.16369879 4291115633
0.76863134 0.055784158 -0.1672771 4290984049
0.76959151 0.054930575 -0.16908956 4291182455
0.77055186 0.054073267 -0.17090237 4291248250
0.77288854 0.053559788 -0.17536438 4291316866
0.77384931 0.052692346 -0.17717755 4290926728
0.77481025 0.051821224 -0.17899084 4293630144
0.77203119 0.13271773 -0.17869365 4286017129
0.77116382 0.13125318 -0.17697954 4285621088
0.76801938 0.12889487 -0.17086184 4284763467
0.76760709 0.12762088 -0.17002809 4284103738
0.76673919 0.12617108 -0.16831338 4284299064
0.76404917 0.12401811 -0.16307533 4284494901
0.76226968 0.12222777 -0.15959835 4284691768
0.75957888 0.12009508 -0.15435934 4284757561
0.75916564 0.11884325 -0.15352464 4284823353
0.75875235 0.11759325 -0.1526897 4284823866
0.75651622 0.11565667 -0.14833069 4284823354
0.755647 0.11424287 -0.14661455 4284692795
0.75523335 0.11300304 -0.14577937 4284694337
0.75345212 0.11125701 -0.14230049 4284630597
0.75258243 0.10985521 -0.14058399 4284369737
0.75125664 0.10828962 -0.13798583 4284174155
0.75084245 0.10706269 -0.13714993 4284437842
0.7504282 0.10583764 -0.13631415 4284306770
0.74910188 0.10428493 -0.13371551 4284437843
0.74914348 0.10322919 -0.13376081 4284503893
0.74872899 0.10201059 -0.13292456 4284503637
0.74831444 0.10079383 -0.13208842 4284372051
0.74789977 0.099578895 -0.13125205 4284503637
0.7479412 0.098525934 -0.13129723 4284372051
0.74707031 0.09715461 -0.12957919 4284174674
0.7452867 0.095470406 -0.1260978 4284305747
0.74487168 0.094265632 -0.12526107 4284502613
0.74400026 0.092906289 -0.12354255 4284699478
0.74404138 0.091861628 -0.12358737 4284895831
0.73636442 0.087160192 -0.10868585 4285420891
0.7364049 0.086131223 -0.10872996 4285486428
0.73644543 0.085102253 -0.10877413 4285617245
0.73739904 0.084375061 -0.11058223 4285748062
0.73789614 0.083494209 -0.11150837 4285748062
0.73793679 0.082462467 -0.1115526 4285748318
0.73797739 0.081430726 -0.11159688 4285748575
0.74818921 0.080481164 -0.13118279 4286668653
0.74868739 0.079572611 -0.13211012 4286800239
0.74872887 0.078519665 -0.1321553 4287128690
0.74968415 0.07775002 -0.13396513 4287260276
0.74972564 0.076695211 -0.13401043 4287194229
0.75022411 0.075780205 -0.13493812 4287129206
0.75072277 0.074863367 -0.13586593 4287129206
0.75076437 0.073806725 -0.13591123 4287063926
0.75126302 0.072887115 -0.13683903 4287129206
0.75176173 0.071965657 -0.13776696 4287260792
0.75226057 0.071042351 -0.138695 4287720061
0.75230229 0.069982924 -0.13874042 4287785340
0.75371563 0.069323562 -0.14143395 4288047999
0.75421476 0.068393789 -0.14236224 4288310658
0.75471389 0.067462184 -0.14329064 4288310658
0.75658512 0.066920482 -0.14686751 4288507010
0.75708455 0.065982424 -0.14779615 4288832384
0.75758404 0.065042518 -0.14872479 4289026681
0.75945586 0.064484201 -0.1523025 4289285490
0.75949812 0.06341093 -0.15234852 4289610860
0.7599979 0.062463634 -0.15327752 4290002025
0.76187044 0.061889641 -0.15685594 4289803106
0.76191288 0.060811751 -0.15690207 4290459754
0.76241285 0.059857063 -0.15783143 4290656876
0.76245534 0.058778279 -0.15787768 4290918767
0.76432866 0.058184899 -0.16145694 4291115633
0.76482898 0.057222836 -0.16238654 4291115887
0.76578712 0.056378417 -0.16419959 4291181680
0.76811898 0.055886112 -0.16866291 4291115635
0.76861966 0.054913901 -0.16959286 4291445113
0.76912051 0.053939827 -0.17052317 4291841158
0.77191091 0.053543024 -0.17587066 4291449223
0.77287006 0.052675553 -0.17768466 4291123594
0.77382928 0.051804386 -0.17949879 4290603667
0.77109122 0.13159716 -0.17925024 4285882714
0.76840717 0.12941656 -0.17401063 4285420110
0.76754111 0.12796125 -0.17229533 4284759870
0.76622033 0.12633201 -0.16969883 4284560949
0.76398993 0.12435489 -0.16533935 4284757044
0.76221383 0.12256277 -0.16186082 4284625458
0.75952798 0.12042835 -0.15661943 4284757044
0.7591157 0.11917468 -0.15578425 4284888630
0.75779361 0.1175768 -0.1531862 4284953910
0.75601655 0.11581237 -0.1497066 4285019190
0.75560379 0.11456888 -0.14887106 4285019190
0.75428122 0.11298671 -0.14627242 4285019192
0.75250328 0.11124074 -0.14279187 4284954169
0.75209022 0.11000737 -0.14195597 4284954426
0.75122195 0.10860839 -0.1402384 4284889403
0.7512638 0.10754619 -0.14028394 4285217857
0.75085056 0.10631835 -0.13944781 4285284421
0.75043714 0.10509237 -0.13861156 4285351243
0.75002366 0.10386822 -0.13777506 4285418833
0.75006533 0.1028088 -0.1378206 4285420631
0.74965179 0.10158744 -0.13698423 4285290842
0.74969345 0.10052895 -0.13702953 4285291098
0.7492798 0.099310331 -0.13619292 4285160026
0.74886608 0.098093592 -0.13535643 4284896855
0.74890769 0.097036935 -0.13540173 4284699476
0.74712741 0.095350944 -0.13191855 4284698706
0.74671346 0.09414158 -0.1310817 4284567120
0.74675488 0.093089543 -0.13112676 4284370511
0.73701751 0.082446687 -0.11202866 4285026647
0.73705816 0.08141496 -0.11207294 4285223258
0.74986273 0.084504269 -0.13682806 4285288794
0.74944848 0.083300434 -0.13599086 4285419610
0.74903411 0.082098447 -0.13515353 4285616476
0.74907571 0.081042729 -0.13519883 4285879391
0.74911726 0.079986997 -0.13524413 4285879392
0.7491588 0.078931265 -0.13528943 4286076516
0.7496565 0.078017168 -0.13621747 4286339688
0.7496981 0.076960526 -0.13626277 4286470506
0.74973971 0.07590387 -0.13630807 4286273127
0.75023746 0.074986093 -0.13723624 4286469735
0.75027913 0.073928513 -0.13728166 4286863724
0.75077701 0.073007964 -0.13820994 4287388785
0.75127494 0.072085582 -0.13913834 4287978612
0.751773 0.071161322 -0.14006686 4288699766
0.75227118 0.070235245 -0.1409955 4289222516
0.75368208 0.069573991 -0.14369023 4289745267
0.75326759 0.068377547 -0.14285278 4290465653
0.75422233 0.067577414 -0.14466465 4290660212
0.75563377 0.066904165 -0.14736009 4290724208
0.75613242 0.065966092 -0.1482892 4290262628
0.75663108 0.065026157 -0.14921832 4290196322
0.75849962 0.064467795 -0.1527977 4290130270
0.75899851 0.063521393 -0.15372705 4290590051
0.75949752 0.062573157 -0.15465665 4290590051
0.76091009 0.06187316 -0.15735328 4290458465
0.76140922 0.060919367 -0.15828288 4290786921
0.76145166 0.059840582 -0.15832925 4291115886
0.76149416 0.058761768 -0.1583755 4291246190
0.76336414 0.058168344 -0.16195631 4291246190
0.76386368 0.057206266 -0.16288638 4290983531
0.76482016 0.056361847 -0.16470027 4291312496
0.76669091 0.055750869 -0.16828191 4291181428
0.76764774 0.054897211 -0.17009616 4291708285
0.76814783 0.053923137 -0.17102695 4291906180
0.77093327 0.053526245 -0.17637694 4291841927
0.77189076 0.052658744 -0.17819178 4291645829
0.7723912 0.051673599 -0.17912281 4291516810
0.76788247 0.12957922 -0.17539895 4285551183
0.76701808 0.12812304 -0.17368293 4285154371
0.76660746 0.12684816 -0.17284822 4284889401
0.7639274 0.12469166 -0.16760516 4284691508
0.7630626 0.1232493 -0.16588855 4284624944
0.75901991 0.12058666 -0.15799928 4284756529
0.75860852 0.1193321 -0.15716386 4284756529
0.75728893 0.11773337 -0.15456462 4284888115
0.75506115 0.11579598 -0.15020132 4285150006
0.75464922 0.11455249 -0.14936543 4285019190
0.75378317 0.11314061 -0.14764738 4284953397
0.75200868 0.11139377 -0.14416528 4284757044
0.75205064 0.11032789 -0.14421105 4284625205
0.75072986 0.10875957 -0.14161062 4284494389
0.7507717 0.10769647 -0.14165616 4284428598
0.75035924 0.10646775 -0.14081955 4284495418
0.74949241 0.10507616 -0.13910079 4284496190
0.74953413 0.10401582 -0.13914621 4284498243
0.74957591 0.10295547 -0.13919175 4284697164
0.74916315 0.10173319 -0.13835478 4284896084
0.74920487 0.10067376 -0.13840032 4285291098
0.74879205 0.099454276 -0.13756335 4285423198
0.74837917 0.098236598 -0.13672626 4285160540
0.74796623 0.097020768 -0.13588929 4285094747
0.74709857 0.095649488 -0.13416946 4285028441
0.74668545 0.094438292 -0.13333213 4284831062
0.74672693 0.093384407 -0.13337743 4284699476
0.74937546 0.08463528 -0.13819897 4284630350
0.7489621 0.083430521 -0.13736129 4284629837
0.74900371 0.082372956 -0.13740671 4284695117
0.74859023 0.081170969 -0.13656902 4284892496
0.74863183 0.080114327 -0.13661432 4285155925
0.74867344 0.079057671 -0.13665974 4285550685
0.7491703 0.07814265 -0.13758814 4285748577
0.74921191 0.07708507 -0.13763356 4286010723
0.74925357 0.07602749 -0.13767886 4286207588
0.74975055 0.075108789 -0.13860762 4286601833
0.74979222 0.0740503 -0.13865304 4286995565
0.75028932 0.073128797 -0.13958168 4287389809
0.75124204 0.072341554 -0.14139414 4287782257
0.75128382 0.071280293 -0.14143968 4288108397
0.75178105 0.070353277 -0.14236856 4288499305
0.75318962 0.069691055 -0.14506471 4288956006
0.7536872 0.068758495 -0.14599407 4289347427
0.75418478 0.067824088 -0.1469233 4289345374
0.7555939 0.067148946 -0.14962006 4289212248
0.75609171 0.066209011 -0.15054977 4289408600
0.75658959 0.065267213 -0.15147936 4289802075
0.75799918 0.064579152 -0.15417671 4290063961
0.75849736 0.06363184 -0.15510666 4290458206
0.75899547 0.062682681 -0.1560365 4290458208
0.76040554 0.061981685 -0.15873444 4290524001
0.76044798 0.060902886 -0.15878069 4290721128
0.76094651 0.05994726 -0.159711 4290918507
0.76144499 0.058989786 -0.16064131 4291115117
0.76285571 0.058273129 -0.16333985 4290786152
0.76335448 0.057310097 -0.1642704 4291312496
0.76430941 0.056464724 -0.16608524 4291444852
0.76617688 0.055852793 -0.16966867 4291707772
0.76667589 0.054880552 -0.17059946 4291445627
0.76717508 0.053906448 -0.1715306 4291644548
0.76949942 0.053393669 -0.17599881 4291645061
0.77045518 0.052527092 -0.17781448 4291514245
0.77141106 0.051656775 -0.1796304 4291581578
0.76780909 0.12992135 -0.17767 4285813839
0.76694643 0.1284633 -0.17595327 4285417541
0.76563066 0.12683141 -0.17335415 4285087034
0.7634086 0.12485164 -0.16899073 4284757042
0.76299846 0.12358414 -0.16815531 4284690478
0.75805712 0.12057015 -0.15849793 4284625197
0.7576465 0.11931562 -0.15766203 4284690990
0.75678265 0.1178899 -0.15594387 4284822576
0.75455892 0.11595165 -0.15157855 4284953651
0.75414789 0.11470725 -0.15074217 4285018674
0.75373679 0.11346471 -0.14990568 4284756018
0.75196564 0.11171607 -0.14642203 4284756018
0.75155431 0.11047997 -0.1455853 4284821043
0.75023603 0.10891078 -0.14298356 4284821043
0.75027794 0.10784674 -0.14302921 4285017397
0.74986637 0.10661712 -0.14219236 4285149496
0.7490012 0.10522463 -0.14047265 4285149498
0.74904299 0.10416337 -0.14051819 4284953146
0.74908477 0.10310211 -0.14056373 4285019454
0.7486729 0.1018789 -0.1397264 4285151553
0.74826092 0.10065757 -0.13888907 4285414727
0.74830264 0.099598147 -0.13893449 4285415497
0.74789065 0.098379575 -0.13809717 4285350731
0.74747854 0.09716285 -0.1372596 4285482831
0.74706638 0.095947973 -0.13642216 4285614674
0.74665409 0.09473493 -0.13558435 4285681237
0.74624181 0.093523763 -0.13474655 4285747543
0.74900687 0.09339615 -0.14009023 4285813336
0.74904859 0.092335813 -0.14013577 4285878872
0.74909037 0.091275461 -0.1401813 4285813079
0.74958616 0.090366893 -0.14110994 4285484884
0.74962795 0.089305632 -0.14115548 4285419091
0.74966973 0.088244356 -0.14120102 4285484114
0.75016558 0.087332077 -0.14212978 4285549394
0.74888659 0.084766231 -0.13957071 4285548112
0.74847406 0.083560593 -0.13873279 4285613135
0.74851573 0.082502104 -0.13877821 4285744208
0.74810308 0.081299208 -0.13794005 4286136656
0.74814475 0.080241643 -0.13798535 4286596180
0.74818635 0.079184048 -0.13803077 4287120471
0.74868244 0.078268103 -0.13895977 4287382359
0.7487241 0.077209614 -0.13900518 4287840089
0.74876577 0.076151095 -0.1390506 4288298330
0.74926198 0.07523144 -0.1399796 4288757341
0.74930364 0.074172013 -0.14002514 4289150302
0.74980003 0.073249601 -0.14095438 4289346910
0.75075102 0.072461419 -0.14276755 4289411420
0.75079286 0.071399219 -0.14281309 4289345112
0.75128943 0.070471264 -0.14374268 4289475928
0.75269556 0.069808088 -0.14644015 4289671767
0.75319231 0.06887459 -0.14736974 4289736789
0.75368911 0.067939244 -0.14829957 4289867349
0.75509578 0.067263134 -0.15099776 4289734993
0.75559276 0.06632226 -0.15192771 4289866069
0.75608993 0.065379553 -0.1528579 4290325850
0.75749713 0.064690523 -0.15555656 4290457690
0.75799435 0.063742243 -0.15648687 4290589276
0.75849181 0.06279216 -0.1574173 4290392413
0.7598995 0.062090211 -0.16011655 4290458206
0.759942 0.061010472 -0.16016293 4290785892
0.76043963 0.060053907 -0.16109347 4290917478
0.76048219 0.058973275 -0.16113985 4290786152
0.76234567 0.058377855 -0.16472423 4290918508
0.76284355 0.057413928 -0.16565526 4291050094
0.76334167 0.056448124 -0.1665864 4291510902
0.7652058 0.055836119 -0.1701715 4291839356
0.76615942 0.054981492 -0.17198753 4291707770
0.76665777 0.05400645 -0.17291892 4291905410
0.768978 0.053492688 -0.1773895 4292104072
0.76993221 0.052625142 -0.17920601 4291646088
0.76637602 0.12972504 -0.17729557 4286010959
0.76551503 0.128268 -0.17557788 4285549381
0.76510602 0.12699223 -0.17474246 4285218874
0.76243591 0.12483495 -0.16949439 4284888883
0.76202661 0.12356748 -0.16865861 4284822576
0.7589035 0.12125293 -0.16252708 4284756270
0.75849384 0.11999469 -0.16169083 4284756783
0.75763178 0.11856531 -0.15997195 4284822576
0.75541228 0.11662348 -0.1556046 4284952879
0.7545498 0.11520427 -0.15388525 4284821293
0.7541396 0.11395892 -0.15304852 4284690479
0.75237185 0.11220761 -0.14956319 4284756272
0.75196147 0.11096876 -0.14872622 4284887604
0.75064582 0.10939684 -0.14612329 4284821811
0.7502352 0.10816353 -0.14528608 4284886323
0.75027716 0.10709765 -0.14533186 4285149495
0.74941367 0.10570241 -0.14361143 4285083962
0.74900287 0.10447463 -0.14277411 4285018939
0.74904472 0.10341152 -0.14281964 4285018941
0.74863374 0.10218652 -0.14198208 4284887868
0.74867553 0.10112432 -0.14202762 4284953148
0.74826455 0.099902071 -0.14118993 4284822076
0.7478534 0.098681666 -0.14035213 4284757056
0.74789512 0.097621314 -0.14039767 4284889925
0.74748385 0.096403681 -0.13955963 4284956487
0.74752557 0.095344268 -0.13960516 4284957257
0.74756724 0.094284855 -0.13965058 4285155149
0.74806213 0.093379937 -0.14057958 4285352528
0.74810386 0.0923196 -0.140625 4285352528
0.74814558 0.091259249 -0.14067054 4285155919
0.7486406 0.090350665 -0.14159966 4285090126
0.74868238 0.08928939 -0.14164519 4285024590
0.74872416 0.088228129 -0.14169061 4285286735
0.74921918 0.08731585 -0.14261985 4285483601
0.74880773 0.086105578 -0.14178169 4285614418
0.7483961 0.084897183 -0.14094341 4285679698
0.74843782 0.083836846 -0.14098883 4285876050
0.7484796 0.082776494 -0.14103436 4285875537
0.74852133 0.081716143 -0.14107978 4286202447
0.74856305 0.080655806 -0.14112532 4286595665
0.74860483 0.079595469 -0.14117074 4286857042
0.74910021 0.078676723 -0.14210033 4287183697
0.74914199 0.077615447 -0.14214587 4287313743
0.74918377 0.076554172 -0.14219141 4287575375
0.74922556 0.075492911 -0.14223695 4288099409
0.74972099 0.074569561 -0.14316654 4288427347
0.75021666 0.073644362 -0.14409637 4288688722
0.75071234 0.072717302 -0.14502621 4288753489
0.75120807 0.071788423 -0.14595616 4288884047
0.75124997 0.070723467 -0.14600182 4289015633
0.75265372 0.070058383 -0.14870071 4289212242
0.75314975 0.069123022 -0.14963102 4289277265
0.75364584 0.068185829 -0.15056121 4289539924
0.75459599 0.067377292 -0.15237617 4289736276
0.7546382 0.066305883 -0.15242207 4289933143
0.75513452 0.065363146 -0.15335262 4290261338
0.75653923 0.064674087 -0.15605259 4290589275
0.75703567 0.063725792 -0.15698338 4290655068
0.7575323 0.062775694 -0.15791428 4290523229
0.75893748 0.0620737 -0.16061473 4290589022
0.75943428 0.061118029 -0.16154575 4290785892
0.75947678 0.060037397 -0.16159213 4290852198
0.75997376 0.059078969 -0.16252339 4290983531
0.76137954 0.058361284 -0.16522455 4291050094
0.76187664 0.057397328 -0.16615593 4291116144
0.76282841 0.056550987 -0.16797256 4291510902
0.76468921 0.055937998 -0.17155933 4291774076
0.76518673 0.054964803 -0.17249119 4291511674
0.76568431 0.053989746 -0.17342305 4291906693
0.76800036 0.053475909 -0.17789578 4291710854
0.76895297 0.052608334 -0.17971313 4291580295
0.76539588 0.12970823 -0.17780316 4286142800
0.76453656 0.12825122 -0.17608452 4285680965
0.76412839 0.12697545 -0.17524874 4285285181
0.76191461 0.1249949 -0.17088103 4285087031
0.76105469 0.1235508 -0.16916192 4284889138
0.75838882 0.12141117 -0.16391039 4284822575
0.75752854 0.11997814 -0.16219079 4284756783
0.75711966 0.11872175 -0.16135418 4284756783
0.75490439 0.11677905 -0.15698481 4284822063
0.75449514 0.11553007 -0.15614772 4284690477
0.75363427 0.1141127 -0.15442753 4284756272
0.75186974 0.11236053 -0.15094042 4284887858
0.75146019 0.11112075 -0.15010309 4285084467
0.7496953 0.10938054 -0.14661551 4285018674
0.74973732 0.10831373 -0.14666128 4284952116
0.74932748 0.10708135 -0.1458236 4285083702
0.74846566 0.10568615 -0.14410233 4285149496
0.74850756 0.1046221 -0.14414799 4285149496
0.74809754 0.10339526 -0.14331019 4285149498
0.74768734 0.10217028 -0.14247215 4285083705
0.74772918 0.10110808 -0.14251769 4285148728
0.74777097 0.10004588 -0.14256322 4285082935
0.74690866 0.098665468 -0.14084136 4285148728
0.74695039 0.097605117 -0.1408869 4285346107
0.74653995 0.096387498 -0.1400485 4285281084
0.74658161 0.09532807 -0.14009392 4285412156
0.74662334 0.094268642 -0.14013934 4285609022
0.7471174 0.093363725 -0.14106882 4285871424
0.74715912 0.092303388 -0.14111423 4286001471
0.74720085 0.091243051 -0.14115977 4285935421
0.74769503 0.090334438 -0.14208925 4286001213
0.74773681 0.089273177 -0.14213479 4286067263
0.74777859 0.088211916 -0.14218032 4286394945
0.74782038 0.087150641 -0.14222586 4286526274
0.74786216 0.086089365 -0.1422714 4286722883
0.74745136 0.08488097 -0.14143264 4286919749
0.74749309 0.083820634 -0.14147806 4286985029
0.74753481 0.082760297 -0.1415236 4286918980
0.74757659 0.081699945 -0.14156902 4287115586
0.74761832 0.080639593 -0.14161456 4287312452
0.74811286 0.079721771 -0.14254451 4287509061
0.74815464 0.07866051 -0.14259005 4287574084
0.74819642 0.07759922 -0.14263558 4287769924
0.74823821 0.076537959 -0.142681 4287965764
0.74873281 0.075615518 -0.14361107 4288293961
0.74877465 0.074553318 -0.14365661 4288687949
0.74926943 0.07362809 -0.14458692 4288884815
0.75021726 0.072837092 -0.14640176 4288818252
0.75025922 0.071772136 -0.14644754 4289014861
0.75030112 0.07070718 -0.1464932 4289211213
0.75170243 0.070042066 -0.14919341 4289341516
0.75219762 0.069106691 -0.15012407 4289406796
0.75269288 0.068169467 -0.15105474 4289668941
0.75409466 0.067491435 -0.15375543 4289866320
0.75459009 0.066548698 -0.15468645 4290129751
0.75508565 0.065604083 -0.15561748 4290261337
0.75648791 0.064913146 -0.15831876 4290326873
0.75698376 0.063963003 -0.15925014 4290326873
0.75747949 0.063011013 -0.1601814 4290326104
0.75888234 0.062307142 -0.16288328 4290589022
0.75892496 0.061225571 -0.16292965 4290720610
0.75896752 0.060144 -0.16297603 4290852198
0.75946361 0.059184648 -0.16390777 4290918508
0.76132059 0.058587275 -0.16749561 4290984301
0.76181704 0.057621472 -0.16842759 4291247730
0.76231337 0.05665379 -0.16935956 4291445109
0.76417106 0.056039833 -0.17294812 4291445111
0.76512146 0.055183284 -0.17476594 4291577467
0.76561832 0.054206394 -0.1756984 4291381374
0.76747662 0.053574897 -0.17928755 4291318404
0.76445913 0.12859139 -0.17835784 4285747528
0.76360136 0.12713623 -0.17663836 4285352000
0.76184231 0.12533152 -0.17315209 4285022009
0.76143473 0.12406129 -0.17231548 4284757810
0.76057649 0.12261813 -0.17059553 4284757040
0.75791532 0.12048318 -0.16534126 4284756783
0.75750732 0.11922403 -0.16450417 4284822576
0.75529623 0.11727866 -0.16013277 4284822063
0.754888 0.1160269 -0.15929556 4284822063
0.75402886 0.11460682 -0.15757453 4285018672
0.75226778 0.1128519 -0.15408587 4285150258
0.75185919 0.11160939 -0.15324831 4285084467
0.74919575 0.10953165 -0.14799154 4284952881
0.74878681 0.10829743 -0.1471535 4284886577
0.74882883 0.10723063 -0.14719915 4284886577
0.74796867 0.10583454 -0.14547718 4284886323
0.74755955 0.10460585 -0.14463902 4285017909
0.74760139 0.10354181 -0.14468467 4285083703
0.74719214 0.1023159 -0.14384627 4285017910
0.74678278 0.10109185 -0.14300776 4285148728
0.74682462 0.10002964 -0.14305329 4285148728
0.7464152 0.098808356 -0.14221478 4285214008
0.74600565 0.097588904 -0.14137614 4285279801
0.74604738 0.096528552 -0.14142156 4285345594
0.74608916 0.095468216 -0.14146709 4285279801
0.74613088 0.094407879 -0.14151251 4285541946
0.74617261 0.093347512 -0.14155805 4285673019
0.74621439 0.092287175 -0.14160347 4285738042
0.74625611 0.091226839 -0.14164901 4285606199
0.74674946 0.090318225 -0.14257896 4285737785
0.74679124 0.08925695 -0.1426245 4285737785
0.74683303 0.088195674 -0.14267004 4286000444
0.74732643 0.087283365 -0.14360011 4286263616
0.74691659 0.086073138 -0.14276111 4286459968
0.74650657 0.084864758 -0.14192188 4286459968
0.74654835 0.083804421 -0.1419673 4286656577
0.74659008 0.082744084 -0.14201283 4286853441
0.74708372 0.08182808 -0.14294314 4287312195
0.74712551 0.080766805 -0.14298868 4287574596
0.74716729 0.079705544 -0.14303422 4287836742
0.74720907 0.078644268 -0.14307964 4287770436
0.74770278 0.077723645 -0.14401007 4287835461
0.74774462 0.07666146 -0.1440556 4287966534
0.74823856 0.075738065 -0.14498627 4288228425
0.74828041 0.074674957 -0.14503181 4288293961
0.74832225 0.073611848 -0.14507747 4288687949
0.74926841 0.072820805 -0.14689314 4288686666
0.74931037 0.071755849 -0.14693892 4288949070
0.74980456 0.070825092 -0.14786983 4289079373
0.75075108 0.070025735 -0.14968598 4289209932
0.7512455 0.069090359 -0.15061712 4289471821
0.75173992 0.068153135 -0.15154827 4289603150
0.7531392 0.067475043 -0.15425026 4289997138
0.75363386 0.066532277 -0.15518177 4290194517
0.75412858 0.065587662 -0.15611315 4290326103
0.75552839 0.064896666 -0.15881574 4290195287
0.75602341 0.063946538 -0.15974748 4290063701
0.7565183 0.062994532 -0.16067922 4290129239
0.75791872 0.062290601 -0.16338229 4290523999
0.75796127 0.061209045 -0.16342866 4290786403
0.75845653 0.060250603 -0.16436088 4290852198
0.75849915 0.059168093 -0.16440725 4290984301
0.76035279 0.058570676 -0.16799676 4290918508
0.7608484 0.057604857 -0.16892922 4291115887
0.76134396 0.05663716 -0.16986156 4291379059
0.76365119 0.056141637 -0.17433763 4291247219
0.7641471 0.055166565 -0.17527056 4291182709
0.76464313 0.054189675 -0.17620349 4291512960
0.76392877 0.12875307 -0.17974925 4285748556
0.76352233 0.12747455 -0.17891264 4285352770
0.76131684 0.12549138 -0.17454076 4284825656
0.76091021 0.12422027 -0.17370403 4284626994
0.76050341 0.12295101 -0.17286706 4284560431
0.75784725 0.1208143 -0.16761029 4284691247
0.75699031 0.11938038 -0.16588902 4284691247
0.75478339 0.11743414 -0.16151547 4284822063
0.75437593 0.11618149 -0.16067779 4284887856
0.75396848 0.11493068 -0.15984011 4285150260
0.75221074 0.11317395 -0.15634978 4285216053
0.7518031 0.11192962 -0.15551186 4285281333
0.75139529 0.1106871 -0.1546737 4285149747
0.74918681 0.10878056 -0.15029848 4284952370
0.7487787 0.10754543 -0.14946008 4284886577
0.74837053 0.10631215 -0.14862156 4284820530
0.7479623 0.1050807 -0.14778292 4285017909
0.747554 0.10385113 -0.1469444 4285280312
0.74714559 0.10262337 -0.14610553 4285214519
0.74718755 0.10155841 -0.1461513 4285214519
0.74677908 0.10033344 -0.14531243 4285280312
0.74637049 0.099110313 -0.14447367 4285412153
0.7464124 0.098047204 -0.14451921 4285346360
0.74600369 0.096826844 -0.1436801 4285345847
0.74604547 0.095764659 -0.14372563 4285214261
0.74608731 0.09470246 -0.14377129 4285213748
0.7461291 0.093640275 -0.14381683 4285476406
0.74617094 0.092578076 -0.14386237 4285607479
0.74621278 0.091515891 -0.1439079 4285737782
0.74625456 0.090453707 -0.14395344 4285934904
0.7467472 0.089542292 -0.14488399 4285868341
0.74678904 0.088479184 -0.14492965 4286196279
0.74683094 0.087416075 -0.14497519 4286524988
0.74642187 0.086204939 -0.14413571 4286721597
0.74646366 0.085142754 -0.14418125 4286655033
0.7465055 0.084080555 -0.14422679 4286982459
0.74654728 0.08301837 -0.14427233 4287311424
0.74704021 0.082100503 -0.14520323 4287376958
0.74708205 0.081037395 -0.14524877 4287573567
0.7471239 0.079974286 -0.14529443 4287835201
0.74761689 0.079052724 -0.14622521 4287966017
0.74765879 0.077988677 -0.14627087 4288228164
0.74770069 0.076924644 -0.14631653 4288359750
0.7481938 0.075999402 -0.14724755 4288490568
0.74868703 0.075072311 -0.1481787 4288424262
0.74872899 0.074006431 -0.14822447 4288883530
0.74922234 0.073076569 -0.14915562 4289014345
0.74971569 0.072144859 -0.15008712 4289145418
0.74975771 0.071077131 -0.15013289 4289145418
0.75070274 0.070275925 -0.15195 4288948552
0.75119632 0.069338672 -0.15288162 4289013832
0.75168997 0.068399571 -0.15381324 4289407307
0.75263536 0.067589141 -0.15563095 4289670222
0.75312918 0.066645436 -0.15656269 4289736276
0.75362319 0.065699883 -0.15749466 4289801556
0.75456887 0.064880215 -0.15931261 4289998165
0.755063 0.063930057 -0.16024482 4290129494
0.75555712 0.062978022 -0.16117692 4290260827
0.75695503 0.062274061 -0.16388142 4290721378
0.75744945 0.061316542 -0.16481388 4290721639
0.75749207 0.060234047 -0.16486037 4290787432
0.75753468 0.059151553 -0.16490674 4290919535
0.75938505 0.058554076 -0.16849792 4290918765
0.75987983 0.057588242 -0.16943073 4291115887
0.76037455 0.056620531 -0.17036355 4291115887
0.76267767 0.056124933 -0.17484188 4291050351
0.76317275 0.055149861 -0.17577505 4291053174
0.763668 0.054172941 -0.17670846 4289740142
0.76078981 0.12565127 -0.17593038 4284825658
0.76038402 0.12437924 -0.17509317 4284561715
0.75997812 0.12310906 -0.17425597 4284560431
0.7573269 0.12097151 -0.16899669 4284625456
0.75647169 0.11953672 -0.16727459 4284690736
0.75426883 0.11758962 -0.16289902 4284756272
0.75386232 0.11633604 -0.16206086 4284887858
0.75345564 0.11508431 -0.1612227 4285215540
0.7517013 0.11332677 -0.15773082 4285281333
0.75129437 0.11208149 -0.15689242 4285215540
0.75088751 0.11083808 -0.15605402 4285149747
0.74913245 0.10909712 -0.15256131 4285018163
0.7487253 0.10786017 -0.15172267 4284886577
0.74786866 0.10646044 -0.14999902 4284755248
0.74746126 0.10522809 -0.14916003 4284952627
0.74750328 0.10416036 -0.1492058 4285150008
0.74664629 0.10276895 -0.14748192 4285018422
0.74668825 0.10170307 -0.14752758 4285084216
0.74628061 0.10047718 -0.14668834 4285281595
0.74587291 0.09925314 -0.14584911 4285281081
0.74591482 0.098189108 -0.14589477 4285215288
0.745507 0.096967839 -0.14505529 4285280054
0.7455489 0.09590473 -0.14510095 4285214261
0.74559075 0.094841607 -0.14514649 4285213748
0.74563259 0.093778484 -0.14519215 4285476406
0.74567443 0.092715375 -0.14523768 4285739065
0.74571627 0.091652267 -0.14528334 4285935161
0.74575818 0.090589158 -0.14532888 4285999927
0.74580002 0.08952605 -0.14537454 4286065207
0.74584186 0.088462926 -0.14542007 4286261559
0.7458837 0.087399803 -0.14546573 4286327352
0.74592555 0.086336695 -0.14551127 4286590011
0.74596745 0.085273586 -0.14555693 4286720827
0.74600929 0.084210478 -0.14560258 4286982459
0.74650127 0.083292596 -0.14653361 4287179581
0.74654317 0.082228564 -0.14657927 4287244602
0.74658507 0.081164531 -0.14662492 4287375675
0.74662697 0.080100499 -0.14667058 4287506493
0.74711913 0.079177998 -0.14760184 4287703615
0.74716109 0.078113042 -0.1476475 4288031298
0.74765342 0.077187784 -0.14857912 4288162371
0.74814582 0.076260678 -0.14951062 4288293189
0.74818784 0.075193875 -0.1495564 4288423748
0.7482298 0.074127071 -0.14960217 4288686407
0.74872231 0.07319627 -0.15053391 4288949066
0.74921501 0.072263651 -0.15146577 4289145931
0.74925709 0.071194999 -0.15151167 4289211724
0.75020039 0.07039281 -0.15332961 4289276234
0.7506932 0.069454618 -0.15426159 4289210441
0.75118613 0.068514608 -0.15519381 4289670222
