# .PCD v0.7 - Point Cloud Data file format
VERSION 0.7
FIELDS x y z rgba
SIZE 4 4 4 4
TYPE F F F U
COUNT 1 1 1 1
WIDTH 1079
HEIGHT 1
VIEWPOINT 0 0 0 1 0 0 0
POINTS 1079
DATA ascii
0.082332909 -0.080324888 1.1520001 4288590502
0.083397835 -0.080324888 1.1520001 4290235328
0.084389418 -0.080255151 1.151 4292998634
0.085527644 -0.080324829 1.1520001 4292932840
0.08659257 -0.080324888 1.1520001 4292604129
0.087657481 -0.080324888 1.1520002 4292801508
0.088722408 -0.080324888 1.1520001 4293262059
0.089787319 -0.080324829 1.1520001 4293130219
0.090852231 -0.080324888 1.1520001 4292669668
0.091917142 -0.080324888 1.1520002 4292735461
0.093062773 -0.080394626 1.153 4293196012
0.094291896 -0.080534101 1.155 4293458415
0.095442116 -0.080603838 1.156 4293524208
0.096594214 -0.080673575 1.1570001 4293261808
-0.12834015 -0.079808414 1.1600001 4288449896
-0.12704842 -0.079670906 1.158 4290623642
-0.12576035 -0.079533339 1.156 4291876282
-0.12426029 -0.079258025 1.1520001 4292206791
-0.12319538 -0.079258084 1.1520001 4292470734
-0.12213045 -0.079258084 1.1520001 4292339405
-0.12096047 -0.079189241 1.151 4291945417
-0.11989647 -0.079189241 1.151 4291550659
-0.11883247 -0.079189241 1.151 4291814344
-0.1177685 -0.079189241 1.151 4292143309
-0.11660311 -0.079120457 1.1500001 4292011470
-0.11554004 -0.079120457 1.1500001 4291813835
-0.11447699 -0.079120457 1.1500001 4291682248
-0.11341393 -0.079120517 1.1500001 4291879627
-0.11235085 -0.079120517 1.1500001 4291682248
-0.111191 -0.079051673 1.149 4290629559
-0.11012888 -0.079051673 1.149 4290168241
-0.10906675 -0.079051673 1.149 4290234033
-0.1080046 -0.079051673 1.149 4290234033
-0.10703554 -0.079120457 1.1500001 4290234285
-0.10597247 -0.079120457 1.1500001 4290299817
-0.10472696 -0.07898283 1.148 4290431904
-0.10366574 -0.07898283 1.148 4290432656
-0.10278328 -0.079120457 1.1500001 4289907314
-0.10172021 -0.079120457 1.1500001 4288593226
-0.10056962 -0.079051673 1.1490002 4287277864
-0.099507481 -0.079051673 1.149 4286685725
-0.098359667 -0.07898283 1.148 4286488598
-0.097298443 -0.07898289 1.148 4286488340
-0.096153408 -0.078914046 1.1470001 4286554388
-0.095093116 -0.078914046 1.1470001 4286619922
-0.094032824 -0.078914046 1.1470001 4286949142
-0.092972524 -0.078913987 1.1470001 4287278105
-0.09191224 -0.078914046 1.1470001 4287738907
-0.090851933 -0.078914046 1.1470001 4288397089
-0.089791656 -0.078914106 1.1470001 4288792098
-0.088731371 -0.078913987 1.1470001 4289121061
-0.087747514 -0.07898283 1.148 4289318186
-0.086686283 -0.07898283 1.148 4289449525
-0.085625067 -0.07898289 1.148 4289580104
-0.084563859 -0.07898283 1.148 4289776739
-0.083502635 -0.07898283 1.148 4290631303
-0.082441419 -0.07898289 1.148 4291156644
-0.081451096 -0.079051673 1.149 4291221681
-0.080388963 -0.079051673 1.149 4291286713
-0.079326816 -0.079051673 1.149 4291154873
-0.078332782 -0.079120457 1.1500001 4291220669
-0.077269726 -0.079120457 1.1500001 4291089083
-0.076140389 -0.079051614 1.149 4290891704
-0.075143605 -0.079120457 1.1500001 4290694325
-0.074080534 -0.079120517 1.1500001 4290431152
-0.073017463 -0.079120457 1.1500001 4290299565
-0.071954407 -0.079120457 1.1500001 4290102186
-0.070891336 -0.079120457 1.1500001 4289839014
-0.069828272 -0.079120457 1.1500001 4289641889
-0.068765201 -0.079120457 1.1500001 4289445019
-0.06764327 -0.079051673 1.149 4289051028
-0.066581123 -0.079051614 1.149 4288393351
-0.06551899 -0.079051614 1.149 4287209328
-0.064400747 -0.07898277 1.148 4286681953
-0.063284375 -0.078914046 1.1470001 4287008859
-0.062224068 -0.078913987 1.1470001 4287336793
-0.061110459 -0.078845263 1.146 4287796057
-0.060051087 -0.078845203 1.146 4288322653
-0.058991715 -0.078845322 1.146 4289309548
-0.057982907 -0.078913987 1.1470001 4289639276
-0.056922611 -0.078914106 1.1470001 4289771367
-0.055911016 -0.07898289 1.148 4289968736
-0.054849811 -0.07898283 1.148 4290033754
-0.053788587 -0.07898283 1.148 4289968470
-0.052727371 -0.07898289 1.148 4289378384
-0.051666159 -0.07898283 1.148 4288394053
-0.050604947 -0.07898289 1.148 4287014713
-0.049543731 -0.07898277 1.148 4285766443
-0.048482507 -0.07898289 1.148 4285438762
-0.047421303 -0.07898283 1.148 4285571120
-0.046360079 -0.07898283 1.148 4286426431
-0.045259409 -0.078914046 1.1470001 4287348309
-0.044199113 -0.078913987 1.1470001 4287742816
-0.043138824 -0.078914106 1.1470001 4287743345
-0.042115219 -0.07898283 1.148 4287480194
-0.041053995 -0.07898283 1.148 4287018638
-0.039992787 -0.07898277 1.148 4286490770
-0.03889766 -0.078913987 1.1470001 4286488726
-0.037837364 -0.078914046 1.1470001 4286881180
-0.036809139 -0.07898289 1.148 4287667619
-0.035747919 -0.07898283 1.148 4288387235
-0.034686707 -0.07898283 1.148 4288451745
-0.033654779 -0.079051673 1.149 4288583846
-0.032592639 -0.079051673 1.149 4288455597
-0.031530499 -0.079051614 1.149 4288197816
-0.030468354 -0.079051673 1.149 4287741885
-0.02940622 -0.079051673 1.149 4286825662
-0.028344082 -0.079051733 1.149 4286236348
-0.02728194 -0.079051673 1.149 4286104760
-0.026196975 -0.07898277 1.148 4285777077
-0.025135761 -0.07898289 1.148 4285645491
-0.024074543 -0.07898283 1.148 4285514927
-0.023013331 -0.07898283 1.148 4285384109
-0.021952111 -0.07898277 1.148 4285515694
-0.020890895 -0.07898283 1.148 4286171568
-0.019829679 -0.07898283 1.148 4286236078
-0.018768467 -0.07898289 1.148 4286563246
-0.017707251 -0.07898289 1.148 4287284144
-0.016646035 -0.07898277 1.148 4288924347
-0.015584815 -0.07898289 1.148 4290105794
-0.014523599 -0.07898283 1.148 4290696645
-0.013462387 -0.07898289 1.148 4290958786
-0.012401175 -0.07898277 1.148 4291088829
-0.011349835 -0.079051673 1.149 4291088568
-0.010287695 -0.079051673 1.1490002 4290956468
-0.0092335828 -0.079120457 1.1500001 4290956719
-0.0081705153 -0.079120457 1.1500001 4291088556
-0.007107459 -0.079120517 1.1500001 4290957467
-0.0060443953 -0.079120457 1.1500001 4290957959
-0.0049813278 -0.079120457 1.1500001 4290827882
-0.0039182603 -0.079120457 1.1500001 4290697029
-0.0028527044 -0.079051614 1.149 4290829619
-0.0017890111 -0.07898283 1.148 4291159087
-0.00072779879 -0.07898283 1.148 4291225133
0.00033312291 -0.078914046 1.1470001 4291290924
0.0013934188 -0.078914046 1.1470001 4291290922
0.0024537072 -0.078913987 1.1470001 4291356715
0.0035139956 -0.078914046 1.1470001 4291291177
0.0045742877 -0.078913987 1.1470001 4291224872
0.0056345798 -0.078914046 1.1470001 4291093286
0.0066948719 -0.078914106 1.1470001 4291027239
0.0077551603 -0.078914046 1.1470001 4291027239
0.0088154525 -0.078914046 1.1470001 4290829864
0.0098757446 -0.078913987 1.1470001 4290764069
0.010936044 -0.078913987 1.1470001 4290698787
0.011996329 -0.078914046 1.1470001 4290764578
0.013068013 -0.07898277 1.148 4290764582
0.014129221 -0.07898289 1.148 4290698789
0.015190437 -0.07898283 1.148 4290698535
0.01626581 -0.079051673 1.149 4290830121
0.017327949 -0.079051673 1.149 4290830375
0.018406101 -0.079120517 1.1500001 4290830375
0.019469157 -0.079120457 1.1500001 4290960935
0.020532228 -0.079120457 1.1500001 4290895142
0.021576516 -0.079051673 1.1490002 4290764071
0.022618957 -0.07898283 1.148 4290764071
0.023680173 -0.07898289 1.148 4290829351
0.024719827 -0.078914046 1.1470001 4290829351
0.025780126 -0.078914046 1.1470001 4290959654
0.026840411 -0.078914046 1.1470001 4290959654
0.027900703 -0.078914046 1.1470001 4290893862
0.028960995 -0.078914046 1.1470001 4290893862
0.03002128 -0.078913987 1.1470001 4290894375
0.031108685 -0.07898283 1.148 4290762789
0.032169893 -0.07898283 1.148 4290761508
0.033231117 -0.07898289 1.148 4290761508
0.034292325 -0.07898283 1.148 4290630692
0.035353549 -0.07898283 1.148 4290630692
0.036414757 -0.07898277 1.148 4290696485
0.037475973 -0.07898289 1.148 4290958887
0.038537197 -0.07898289 1.148 4291417385
0.039563909 -0.078914046 1.1470001 4291875626
0.040624201 -0.078914046 1.1470001 4292267565
0.041720837 -0.07898283 1.148 4292659756
0.042782046 -0.07898289 1.148 4292525864
0.043843269 -0.07898283 1.148 4292524835
0.044904493 -0.07898283 1.148 4292458272
0.045965694 -0.07898283 1.148 4292458527
0.047026917 -0.07898289 1.148 4292393248
0.048088141 -0.07898283 1.148 4292459041
0.049192168 -0.079051733 1.1490002 4292459301
0.0502543 -0.079051673 1.149 4292459301
0.05131644 -0.079051673 1.149 4292525098
0.052332997 -0.07898289 1.148 4292525096
0.053394221 -0.07898283 1.148 4292590376
0.054455429 -0.07898283 1.148 4292524837
0.055516653 -0.07898283 1.148 4292655653
0.056627132 -0.079051673 1.149 4292721192
0.057689294 -0.079051673 1.149 4292590378
0.05880256 -0.079120457 1.1500001 4292590378
0.059865624 -0.079120517 1.1500001 4292458792
0.06092868 -0.079120457 1.1500001 4292655399
0.062045656 -0.079189241 1.151 4292523302
0.063109644 -0.079189241 1.151 4292391459
0.064229384 -0.079258144 1.1520002 4292521765
0.065294303 -0.079258025 1.1520002 4292324643
0.066359222 -0.079258025 1.1520001 4292258854
0.067424141 -0.079258025 1.1520002 4292193835
0.068489052 -0.079258084 1.1520002 4291931702
0.069614336 -0.079326868 1.153 4291802185
0.070680171 -0.079326868 1.1530001 4291673706
0.071746007 -0.079326868 1.1530001 4291873934
0.072811842 -0.079326868 1.1530001 4292467385
0.073877692 -0.079326928 1.153 4292535249
0.074878529 -0.079258084 1.1520002 4292338647
0.07594344 -0.079258084 1.1520002 4292142297
0.077008367 -0.079258025 1.1520001 4292208603
0.078073263 -0.079258025 1.1520002 4292208601
0.07913819 -0.079258084 1.1520002 4292208601
0.080133468 -0.079189241 1.151 4291879636
0.08119747 -0.079189241 1.151 4290038202
0.082261458 -0.079189241 1.151 4289051307
0.083325446 -0.079189181 1.151 4290169021
0.084316105 -0.079120457 1.1500001 4292932071
0.085379168 -0.079120457 1.1500001 4292932840
0.086517408 -0.079189241 1.151 4292603875
0.087581396 -0.079189241 1.151 4292867301
0.088645369 -0.079189241 1.151 4293327852
0.089709371 -0.079189181 1.151 4293196012
0.090852231 -0.079258025 1.1520002 4292735461
0.091917142 -0.079258084 1.1520002 4292735462
0.093143463 -0.079395652 1.1539999 4293196013
0.094210252 -0.079395652 1.154 4293458415
0.095359564 -0.079464495 1.1550001 4293590001
0.096510738 -0.079533339 1.156 4293261806
-0.12822953 -0.078666389 1.1589999 4288780143
-0.1269387 -0.07853061 1.1570001 4290953632
-0.1256516 -0.07839489 1.1550001 4291877051
-0.12415244 -0.078123391 1.151 4292207304
-0.12308847 -0.078123331 1.151 4292470736
-0.12202447 -0.078123271 1.151 4292339407
-0.12085538 -0.078055501 1.1500001 4291944390
-0.11979232 -0.078055501 1.1500001 4291878597
-0.11872925 -0.078055501 1.1500001 4292076235
-0.11766617 -0.078055501 1.1500001 4292274127
-0.11660311 -0.078055501 1.1500001 4292077005
-0.11543958 -0.077987552 1.1490002 4291748040
-0.11437743 -0.077987611 1.149 4291813833
-0.11331531 -0.077987611 1.1490002 4292011212
-0.11215547 -0.077919722 1.148 4291748041
-0.11109425 -0.077919722 1.148 4290629561
-0.11003304 -0.077919722 1.148 4290036911
-0.1088769 -0.077851772 1.1470001 4290168240
-0.1079106 -0.077919722 1.148 4290234031
-0.10684938 -0.077919662 1.148 4290234284
-0.10578816 -0.077919781 1.148 4290234024
-0.10472696 -0.077919722 1.148 4290168734
-0.10366575 -0.077919781 1.148 4290103188
-0.10260452 -0.077919722 1.148 4289841023
-0.1015433 -0.077919781 1.148 4288921175
-0.10048209 -0.077919722 1.148 4287869238
-0.099420868 -0.077919722 1.148 4287079972
-0.098273993 -0.077851892 1.1470001 4286685466
-0.0972137 -0.077851832 1.1470001 4286751259
-0.096069574 -0.077784002 1.146 4286817305
-0.095010199 -0.077784002 1.146 4286882841
-0.093950823 -0.077784002 1.1460001 4287146008
-0.09289147 -0.077784002 1.146 4287409433
-0.091832101 -0.077784002 1.146 4287804441
-0.090772733 -0.077784002 1.146 4288331038
-0.089713365 -0.077784002 1.146 4288857378
-0.088731378 -0.077851832 1.1470001 4289252389
-0.087671079 -0.077851892 1.1470001 4289383722
-0.086610779 -0.077851832 1.1470001 4289448762
-0.085550494 -0.077851832 1.1470001 4289644881
-0.084490195 -0.077851892 1.1470001 4290104437
-0.083429903 -0.077851832 1.1470001 4290958233
-0.082369626 -0.077851892 1.1470001 4291352750
-0.081380188 -0.077919722 1.148 4291351992
-0.08031898 -0.077919781 1.148 4291220666
-0.079257779 -0.077919662 1.148 4291220667
-0.078264669 -0.077987552 1.149 4291220669
-0.077202536 -0.077987611 1.149 4291089083
-0.076140389 -0.077987611 1.149 4290826168
-0.075078242 -0.077987611 1.149 4290562996
-0.074016109 -0.077987611 1.1490002 4290365617
-0.072953977 -0.077987611 1.149 4290168492
-0.071891822 -0.077987611 1.1490002 4290102186
-0.070829675 -0.077987611 1.149 4289773733
-0.06976755 -0.077987552 1.149 4289379748
-0.068705417 -0.077987611 1.1490002 4288920737
-0.067584395 -0.077919722 1.148 4288199065
-0.066523172 -0.077919781 1.148 4287543444
-0.065461963 -0.077919722 1.148 4286887828
-0.064344659 -0.077851832 1.1470001 4286559890
-0.063284382 -0.077851832 1.1470001 4286297229
-0.062169816 -0.077784002 1.146 4285704578
-0.061110456 -0.077784061 1.1460001 4285111926
-0.060051084 -0.077783942 1.146 4285440376
-0.058991715 -0.077784002 1.1460001 4286163585
-0.057932362 -0.077784002 1.1460001 4286952327
-0.056872986 -0.077783942 1.146 4287542149
-0.055862322 -0.077851832 1.1470001 4287934843
-0.054849807 -0.077919722 1.148 4288786801
-0.053788587 -0.077919662 1.148 4289574247
-0.052727375 -0.077919781 1.148 4289836128
-0.051666155 -0.077919722 1.148 4290164829
-0.050604951 -0.077919722 1.148 4289310803
-0.049543731 -0.077919722 1.148 4288259653
-0.048482515 -0.077919781 1.148 4287142711
-0.047421299 -0.077919781 1.148 4286289968
-0.046319708 -0.077851892 1.1470001 4285898804
-0.045259409 -0.077851832 1.1470001 4286032183
-0.044199113 -0.077851832 1.1470001 4287084101
-0.043138828 -0.077851832 1.1470001 4287808084
-0.042078536 -0.077851892 1.1470001 4288202592
-0.041018244 -0.077851832 1.1470001 4288005995
-0.039957955 -0.077851832 1.1470001 4287610229
-0.038897663 -0.077851832 1.1470001 4286623092
-0.037837364 -0.077851832 1.1470001 4286227068
-0.036777072 -0.077851832 1.1470001 4286487943
-0.035716787 -0.077851892 1.1470001 4287339413
-0.034686711 -0.077919662 1.148 4288059806
-0.033654779 -0.077987611 1.149 4288582815
-0.032592636 -0.077987671 1.149 4288845476
-0.031530499 -0.077987611 1.149 4289174444
-0.030468356 -0.077987671 1.1490002 4289308854
-0.02938062 -0.077919781 1.148 4289114042
-0.028319407 -0.077919722 1.148 4288198585
-0.027258197 -0.077919722 1.148 4287348154
-0.026174163 -0.077851832 1.1470001 4286563001
-0.025113875 -0.077851832 1.1470001 4285973174
-0.024053589 -0.077851832 1.1470001 4285711284
-0.022993285 -0.077851832 1.1470001 4285841587
-0.021913875 -0.077784002 1.146 4285842352
-0.020872712 -0.077851832 1.1470001 4285974705
-0.019812413 -0.077851832 1.1470001 4285973935
-0.018768463 -0.077919781 1.148 4286365362
-0.017707251 -0.077919722 1.148 4287349945
-0.016631536 -0.077851892 1.1470001 4288531390
-0.015571252 -0.077851832 1.1470001 4289450175
-0.014510959 -0.077851832 1.1470001 4290367940
-0.013450667 -0.077851832 1.1470001 4290695362
-0.012390375 -0.077851832 1.1470001 4290760379
-0.011330079 -0.077851832 1.1470001 4290825908
-0.010278739 -0.077919781 1.148 4290956969
-0.0092175268 -0.077919781 1.148 4290760344
-0.008156307 -0.077919722 1.148 4290892421
-0.007095091 -0.077919722 1.148 4290761837
-0.0060338788 -0.077919722 1.148 4290631757
-0.0049813278 -0.078055501 1.1500001 4290566967
-0.0039182566 -0.078055501 1.1500001 4290502187
-0.0028527156 -0.077987552 1.149 4290831143
-0.0017890073 -0.077919722 1.148 4291290415
-0.00072779879 -0.077919781 1.148 4291355693
0.00033342093 -0.077919781 1.148 4291224872
0.0013946295 -0.077919722 1.148 4291422250
0.0024558529 -0.077919722 1.148 4291422251
0.0035170689 -0.077919722 1.148 4291290665
0.0045782775 -0.077919781 1.148 4291027752
0.0056394935 -0.077919722 1.148 4290896166
0.0067007132 -0.077919781 1.148 4290764582
0.0077619329 -0.077919722 1.148 4290698789
0.0088231489 -0.077919722 1.148 4290632996
0.0098757446 -0.077851832 1.1470001 4290632996
0.010936037 -0.077851892 1.1470001 4290501924
0.011996336 -0.077851832 1.1470001 4290501924
0.013056621 -0.077851832 1.1470001 4290501924
0.014129221 -0.077919722 1.148 4290501924
0.015190445 -0.077919722 1.148 4290567717
0.01626581 -0.077987611 1.149 4290633510
0.017327957 -0.077987611 1.1490002 4290764328
0.018390097 -0.077987611 1.149 4290764328
0.019469164 -0.078055501 1.1500001 4290829864
0.020532228 -0.078055561 1.1500001 4290829864
0.021576516 -0.077987611 1.149 4290829864
0.022618957 -0.077919781 1.148 4290764071
0.023680173 -0.077919722 1.148 4290829351
0.024719834 -0.077851892 1.1470001 4290829351
0.025780119 -0.077851832 1.1470001 4290895144
0.026840404 -0.077851832 1.1470001 4290895144
0.027900703 -0.077851832 1.1470001 4290829351
0.028960995 -0.077851832 1.1470001 4290829351
0.030047469 -0.077919781 1.148 4290894375
0.031108677 -0.077919722 1.148 4290762789
0.032169901 -0.077919722 1.148 4290696483
0.033231109 -0.077919722 1.148 4290630690
0.034292325 -0.077919781 1.148 4290696485
0.035353549 -0.077919722 1.148 4290630692
0.036414765 -0.077919781 1.148 4290630692
0.037475981 -0.077919722 1.148 4290696485
0.038537189 -0.077919722 1.148 4290893096
0.039598405 -0.077919781 1.148 4291155242
0.040624201 -0.077851832 1.1470001 4291613996
0.041720852 -0.077919781 1.148 4292072494
0.042782053 -0.077919722 1.148 4292200745
0.043843269 -0.077919781 1.148 4292133412
0.044904485 -0.077919722 1.148 4292196897
0.045965701 -0.077919781 1.148 4292262176
0.04702691 -0.077919662 1.148 4292327456
0.048088126 -0.077919781 1.148 4292393249
0.04919216 -0.077987671 1.149 4292589858
0.0502543 -0.077987611 1.149 4292721444
0.051271781 -0.077919722 1.148 4292721446
0.052332997 -0.077919722 1.148 4292721446
0.053394206 -0.077919781 1.148 4292590630
0.054455429 -0.077919722 1.148 4292590630
0.055565007 -0.077987671 1.1490002 4292590630
0.056627139 -0.077987611 1.149 4292590630
0.057689279 -0.077987611 1.1490002 4292590376
0.05880256 -0.078055501 1.1500001 4292590376
0.059865616 -0.078055561 1.1500001 4292721194
0.06092868 -0.078055501 1.1500001 4292655401
0.062045649 -0.078123391 1.151 4292589097
0.063109636 -0.07812345 1.151 4292325925
0.064229399 -0.078191221 1.1520001 4292390436
0.065294296 -0.07819128 1.1520001 4292324643
0.066359222 -0.07819128 1.1520002 4292390179
0.067424133 -0.078191221 1.1520001 4292258852
0.068489052 -0.07819134 1.1520002 4292128554
0.069614336 -0.07825917 1.1530001 4291866932
0.070680171 -0.07825911 1.1530001 4291802955
0.071746022 -0.07825917 1.1530001 4292199538
0.072811857 -0.07825911 1.1530001 4292728742
0.073877692 -0.07825911 1.1530001 4292665029
0.074878514 -0.078191221 1.1520001 4292403664
0.075943425 -0.078191221 1.1520001 4292339160
0.077008352 -0.07819134 1.1520001 4292208601
0.078073263 -0.07819128 1.1520002 4292011992
0.079138175 -0.078191221 1.1520001 4292076504
0.080133453 -0.078123331 1.151 4291813845
0.081197456 -0.078123391 1.151 4290761157
0.082261443 -0.078123331 1.151 4289380017
0.083325431 -0.078123331 1.151 4290168765
0.084389433 -0.078123391 1.151 4292866533
0.085453421 -0.078123331 1.151 4292932840
0.086517408 -0.078123331 1.151 4292604129
0.087581396 -0.078123331 1.151 4292867047
0.08856836 -0.078055501 1.1500001 4293327598
0.089709386 -0.078123331 1.151 4293196013
0.090773359 -0.078123331 1.151 4292735462
0.091837361 -0.078123331 1.151 4292801254
0.093062773 -0.07825911 1.153 4293196012
0.094210237 -0.07832706 1.154 4293458670
0.095359564 -0.07839489 1.1550001 4293458670
0.096427262 -0.078394949 1.1550001 4293326831
-0.12800825 -0.077459216 1.1569999 4289043315
-0.12671927 -0.077325284 1.1550001 4291019939
-0.125434 -0.077191353 1.153 4291942844
-0.12393671 -0.076923609 1.1490002 4292207304
-0.12287457 -0.076923549 1.1490002 4292339406
-0.12181242 -0.076923609 1.149 4292142541
-0.12075029 -0.076923549 1.1490002 4291878597
-0.11968815 -0.076923609 1.149 4291747267
-0.11862601 -0.076923609 1.1490002 4292076235
-0.11756386 -0.076923609 1.149 4292208591
-0.11640033 -0.076856613 1.148 4292011212
-0.11523864 -0.076789677 1.1470001 4291682247
-0.11417837 -0.076789677 1.1470001 4291748040
-0.11292082 -0.076655805 1.1450001 4292011212
-0.11186237 -0.076655865 1.1450001 4291616454
-0.11080392 -0.076655865 1.1450001 4290497973
-0.10984133 -0.076722741 1.146 4289970859
-0.10878198 -0.076722682 1.146 4290102445
-0.10781662 -0.076789677 1.1470001 4290168492
-0.10675631 -0.076789677 1.1470001 4290102697
-0.10569602 -0.076789618 1.1470001 4290102436
-0.10463575 -0.076789677 1.1470001 4290168734
-0.10357543 -0.076789618 1.1470001 4290103188
-0.10251515 -0.076789677 1.1470001 4290038146
-0.10136641 -0.076722741 1.146 4289381728
-0.10030704 -0.076722801 1.146 4288461119
-0.09933427 -0.076789677 1.1470001 4287540778
-0.098188296 -0.076722741 1.146 4286948637
-0.097128943 -0.076722741 1.146 4286948378
-0.095985733 -0.076655805 1.1450001 4287014169
-0.094927311 -0.076655805 1.1450001 4287145755
-0.093868837 -0.076655805 1.1450001 4287409180
-0.092810407 -0.076655746 1.1450001 4287738143
-0.091832101 -0.076722741 1.146 4288001567
-0.090772733 -0.076722801 1.146 4288462369
-0.089635074 -0.076655805 1.1450001 4288988965
-0.088653997 -0.076722741 1.1460001 4289252388
-0.087594628 -0.076722741 1.146 4289383721
-0.08653526 -0.076722801 1.1460001 4289580598
-0.085475907 -0.076722682 1.146 4289645133
-0.084416531 -0.076722741 1.146 4290236023
-0.083357163 -0.076722741 1.146 4290892698
-0.082369618 -0.076789677 1.1470001 4291352241
-0.081309326 -0.076789677 1.1470001 4291286201
-0.080249026 -0.076789618 1.1470001 4291154876
-0.079257771 -0.076856613 1.148 4291088829
-0.078196555 -0.076856613 1.148 4291089083
-0.077135347 -0.076856613 1.148 4291023290
-0.076074123 -0.076856673 1.148 4290826168
-0.074947573 -0.076789677 1.1470001 4290628789
-0.073887274 -0.076789677 1.1470001 4290431664
-0.07289049 -0.076856613 1.148 4290300077
-0.071829267 -0.076856673 1.148 4290036905
-0.070768043 -0.076856613 1.148 4289642659
-0.069706835 -0.076856613 1.148 4289117343
-0.068585828 -0.076789677 1.1470001 4288526747
-0.067525536 -0.076789677 1.1470001 4288001942
-0.066465251 -0.076789618 1.1470001 4287478166
-0.065404937 -0.076789677 1.1470001 4287282586
-0.064288557 -0.076722741 1.146 4287218589
-0.063229188 -0.076722801 1.146 4287219103
-0.062169831 -0.076722801 1.146 4286693014
-0.061057135 -0.076655805 1.1450001 4285902216
-0.059998684 -0.076655805 1.1450001 4285310077
-0.058940243 -0.076655746 1.1450001 4285572222
-0.057932362 -0.076722741 1.146 4285506168
-0.05687299 -0.076722741 1.146 4285964660
-0.055813614 -0.076722741 1.146 4286423145
-0.05480203 -0.076789677 1.1470001 4287538528
-0.053741753 -0.076789677 1.1470001 4288588634
-0.052727379 -0.076856613 1.148 4289508951
-0.051666159 -0.076856613 1.148 4289705298
-0.050604951 -0.076856613 1.148 4289968218
-0.049500581 -0.076789737 1.1470001 4289706329
-0.048440285 -0.076789618 1.1470001 4289313111
-0.04738 -0.076789677 1.1470001 4288066121
-0.046319708 -0.076789677 1.1470001 4286359096
-0.045259409 -0.076789677 1.1470001 4285768752
-0.044160582 -0.076722741 1.146 4286031410
-0.04310121 -0.076722801 1.146 4286557754
-0.042078532 -0.076789677 1.1470001 4287347277
-0.041018251 -0.076789677 1.1470001 4287873888
-0.039957955 -0.076789677 1.1470001 4287873650
-0.03889766 -0.076789677 1.1470001 4287741312
-0.037804388 -0.076722741 1.146 4287082116
-0.036777083 -0.076789677 1.1470001 4286554504
-0.035716787 -0.076789737 1.1470001 4286683532
-0.034656502 -0.076789618 1.1470001 4286943631
-0.033625491 -0.076856613 1.148 4287859094
-0.032564275 -0.076856613 1.148 4288383900
-0.031503055 -0.076856613 1.148 4288713124
-0.030441836 -0.076856673 1.148 4288518311
-0.029380627 -0.076856613 1.148 4288324012
-0.028319405 -0.076856673 1.148 4287803058
-0.027234459 -0.076789677 1.1470001 4287413693
-0.026174162 -0.076789677 1.1470001 4286694074
-0.025113873 -0.076789677 1.1470001 4286301112
-0.024032608 -0.076722801 1.146 4285842100
-0.022973239 -0.076722741 1.146 4285710512
-0.021913871 -0.076722741 1.1460001 4285580207
-0.02085451 -0.076722741 1.146 4285646253
-0.019812409 -0.076789677 1.1470001 4285711787
-0.018752124 -0.076789737 1.1470001 4286301614
-0.017691832 -0.076789677 1.1470001 4287022514
-0.01663154 -0.076789677 1.1470001 4288334779
-0.015571252 -0.076789618 1.1470001 4289318589
-0.014498297 -0.076722741 1.146 4290105533
-0.013438936 -0.076722801 1.146 4290498234
-0.012379568 -0.076722741 1.1460001 4290562998
-0.011330083 -0.076789677 1.1470001 4290562737
-0.010269791 -0.076789677 1.1470001 4290627750
-0.0092094988 -0.076789618 1.1470001 4290496918
-0.0081492141 -0.076789677 1.1470001 4290431617
-0.0070889145 -0.076789677 1.1470001 4290432870
-0.0060286261 -0.076789677 1.1470001 4290630987
-0.0049683377 -0.076789677 1.1470001 4290501172
-0.0039114505 -0.076856673 1.148 4290567466
-0.0028477497 -0.076789677 1.1470001 4290765350
-0.0017874613 -0.076789677 1.1470001 4291093543
-0.00072716922 -0.076789677 1.1470001 4291159079
0.00033311918 -0.076789677 1.1470001 4291224872
0.0013934113 -0.076789618 1.1470001 4291224872
0.0024537072 -0.076789677 1.1470001 4291159079
0.0035139956 -0.076789677 1.1470001 4290961700
0.0045742877 -0.076789618 1.1470001 4290764580
0.0056345798 -0.076789737 1.1470001 4290698787
0.0066948682 -0.076789677 1.1470001 4290632996
0.0077551678 -0.076789677 1.1470001 4290567203
0.0088154599 -0.076789677 1.1470001 4290567203
0.0098671392 -0.076722741 1.146 4290632996
0.010926515 -0.076722682 1.1460001 4290501926
0.011985868 -0.076722741 1.146 4290501926
0.013045244 -0.076722801 1.146 4290501924
0.014116913 -0.076789677 1.1470001 4290501924
0.015190445 -0.076856613 1.148 4290501924
0.016251661 -0.076856673 1.148 4290501924
0.017312869 -0.076856613 1.148 4290698535
0.018390089 -0.076923609 1.149 4290698535
0.019452237 -0.076923549 1.149 4290698535
0.020514376 -0.076923609 1.149 4290698535
0.021576509 -0.076923609 1.149 4290764071
0.022618949 -0.076856613 1.148 4290698278
0.023680165 -0.076856613 1.148 4290698278
0.024719827 -0.076789677 1.1470001 4290764071
0.025780126 -0.076789677 1.1470001 4290895144
0.026840404 -0.076789677 1.1470001 4290895144
0.027900711 -0.076789677 1.1470001 4290895144
0.028960988 -0.076789618 1.1470001 4290895144
0.030021288 -0.076789677 1.1470001 4290960168
0.031081572 -0.076789677 1.1470001 4290828582
0.032141864 -0.076789618 1.1470001 4290762276
0.033202156 -0.076789677 1.1470001 4290696483
0.034262449 -0.076789677 1.1470001 4290630949
0.035322741 -0.076789677 1.1470001 4290565156
0.036414765 -0.076856613 1.148 4290630692
0.037443325 -0.076789677 1.1470001 4290630692
0.038503624 -0.076789677 1.1470001 4290826790
0.039563909 -0.076789677 1.1470001 4291023656
0.040624194 -0.076789677 1.1470001 4291547690
0.041684486 -0.076789677 1.1470001 4292006701
0.042782053 -0.076856673 1.148 4292398124
0.043843277 -0.076856673 1.148 4292396584
0.044904485 -0.076856673 1.148 4292394531
0.045965694 -0.076856613 1.148 4292327968
0.047026925 -0.076856613 1.148 4292327456
0.048088133 -0.076856613 1.148 4292327456
0.049149357 -0.076856673 1.148 4292393249
0.050254315 -0.076923609 1.1490002 4292524835
0.051271774 -0.076856613 1.148 4292459044
0.052332997 -0.076856673 1.148 4292524837
0.053394206 -0.076856673 1.148 4292590630
0.054455429 -0.076856732 1.148 4292590630
0.055565007 -0.076923549 1.1490002 4292590630
0.056627147 -0.076923609 1.149 4292590630
0.057689279 -0.076923609 1.149 4292590376
0.05880256 -0.076990604 1.1500001 4292590376
0.059865616 -0.076990664 1.1500001 4292721194
0.060928702 -0.076990545 1.1500001 4292721194
0.062045656 -0.077057481 1.151 4292720170
0.063109636 -0.077057481 1.151 4292522791
0.064229399 -0.077124417 1.1520001 4292456229
0.065294303 -0.077124476 1.1520002 4292324643
0.066359214 -0.077124476 1.1520001 4292258593
0.067424133 -0.077124417 1.1520001 4292127266
0.068548493 -0.077191412 1.153 4291931176
0.069614336 -0.077191412 1.1530001 4291669298
0.07074146 -0.077258348 1.154 4291605575
0.071808219 -0.077258408 1.154 4291738986
0.072811857 -0.077191412 1.153 4292202398
0.073877692 -0.077191412 1.153 4292402111
0.074943528 -0.077191412 1.153 4292338384
0.076009363 -0.077191412 1.1530001 4292208342
0.077075198 -0.077191412 1.1530001 4292142806
0.078073278 -0.077124417 1.1520001 4291880404
0.07913819 -0.077124417 1.1520001 4292011224
0.080203101 -0.077124417 1.1520002 4291814359
0.081197456 -0.077057481 1.151 4291024843
0.082261458 -0.07705754 1.151 4289643446
0.083325431 -0.077057421 1.151 4290235581
0.084389433 -0.07705754 1.151 4292604129
0.085453406 -0.077057481 1.151 4292867301
0.086517408 -0.077057421 1.151 4292604129
0.087581396 -0.077057481 1.151 4292867047
0.088645384 -0.077057481 1.151 4293327598
0.089709371 -0.077057421 1.151 4293130220
0.090773359 -0.07705754 1.151 4292735462
0.091837347 -0.077057481 1.151 4292801254
0.093062758 -0.077191472 1.1530001 4293196012
0.094210237 -0.077258408 1.154 4293524463
0.095276996 -0.077258348 1.154 4293524463
0.096343741 -0.077258348 1.1539999 4293392624
-0.12789759 -0.076321781 1.1559999 4289175673
-0.12671927 -0.076255739 1.155 4291085988
-0.12543398 -0.076123655 1.153 4291942845
-0.12393671 -0.075859606 1.149 4292207304
-0.12287457 -0.075859547 1.149 4292273357
-0.12181242 -0.075859606 1.1490002 4292076491
-0.12075029 -0.075859547 1.1490002 4291878598
-0.11968816 -0.075859606 1.149 4291747524
-0.11862601 -0.075859606 1.1490002 4292142282
-0.11735924 -0.075727463 1.1470001 4292142796
-0.11629892 -0.075727522 1.1470001 4291945417
-0.11513819 -0.07566148 1.146 4291616452
-0.1140788 -0.07566154 1.1460001 4291748039
-0.11292081 -0.075595498 1.1450001 4292011212
-0.11186237 -0.075595498 1.1450001 4291484870
-0.1109007 -0.07566148 1.146 4290366389
-0.10984135 -0.07566148 1.1460001 4289971117
-0.10878196 -0.07566148 1.146 4290102447
-0.10781662 -0.075727463 1.1470001 4290168240
-0.10675632 -0.075727522 1.1470001 4290036652
-0.10578817 -0.075793505 1.148 4290036646
-0.10472696 -0.075793505 1.148 4290102689
-0.10366574 -0.075793564 1.148 4290102937
-0.10260453 -0.075793505 1.148 4290103692
-0.10145487 -0.075727463 1.1470001 4289775480
-0.10030704 -0.07566154 1.146 4289052508
-0.099247664 -0.07566154 1.146 4288132159
-0.098102629 -0.075595438 1.1450001 4287409192
-0.096959442 -0.075529456 1.1440001 4287079966
-0.095901906 -0.075529397 1.1440001 4287146009
-0.094844386 -0.075529456 1.1440001 4287277593
-0.093786865 -0.075529397 1.1440001 4287540762
-0.09272936 -0.075529456 1.1440001 4287869983
-0.091671824 -0.075529456 1.1440001 4288133150
-0.090614319 -0.075529337 1.1440001 4288462368
-0.089556798 -0.075529397 1.1440001 4288988964
-0.08857663 -0.075595438 1.1450001 4289317927
-0.0875182 -0.075595438 1.1450001 4289449261
-0.086459756 -0.075595438 1.1450001 4289711932
-0.085401312 -0.075595498 1.1450001 4289645137
-0.084342867 -0.075595438 1.1450001 4290301560
-0.083284423 -0.075595498 1.1450001 4290826904
-0.082225986 -0.075595438 1.1450001 4291155116
-0.081167534 -0.075595438 1.1450001 4291154614
-0.080109097 -0.075595438 1.1450001 4291023288
-0.079050645 -0.075595438 1.1450001 4290957497
-0.078060336 -0.075661421 1.146 4290957497
-0.076933771 -0.075595438 1.1450001 4290957497
-0.075875327 -0.075595438 1.1450001 4290826168
-0.074816883 -0.075595498 1.1450001 4290628789
-0.073758438 -0.075595498 1.1450001 4290300596
-0.072699994 -0.075595438 1.1450001 4290103217
-0.071641564 -0.075595498 1.1450001 4289905322
-0.070583098 -0.075595438 1.1450001 4289510821
-0.069524668 -0.075595438 1.1450001 4288854430
-0.068466224 -0.075595498 1.1450001 4288066712
-0.067407772 -0.075595379 1.1450002 4287608474
-0.06634935 -0.075595438 1.1450001 4287282079
-0.065290891 -0.075595438 1.1450001 4287020966
-0.064232461 -0.075595438 1.1450001 4286956461
-0.063174024 -0.075595438 1.1450001 4287088558
-0.062061317 -0.075529456 1.1440001 4286957229
-0.061003797 -0.075529456 1.1440001 4286299553
-0.05994628 -0.075529397 1.1440001 4285444241
-0.058888767 -0.075529397 1.1440001 4284785537
-0.057881799 -0.075595498 1.1450001 4284587384
-0.056823358 -0.075595498 1.1450001 4284783478
-0.055764914 -0.075595498 1.1450002 4285177206
-0.054754257 -0.07566148 1.146 4285110898
-0.053694896 -0.07566148 1.146 4286095732
-0.052635524 -0.07566154 1.146 4287277689
-0.051576152 -0.07566148 1.146 4288065139
-0.050560873 -0.075727463 1.1470001 4289115503
-0.049500581 -0.075727463 1.1470001 4289772906
-0.048440281 -0.075727522 1.1470001 4289969764
-0.047379997 -0.075727463 1.1470001 4289904222
-0.046279315 -0.07566148 1.1460001 4289312084
-0.04521995 -0.07566154 1.1460001 4288326469
-0.044160582 -0.075661421 1.1460001 4287406903
-0.04310121 -0.07566148 1.146 4286488364
-0.042041846 -0.07566154 1.146 4286424625
-0.040982485 -0.07566148 1.146 4286558007
-0.039923117 -0.07566148 1.146 4287807304
-0.038863741 -0.07566154 1.1460001 4288267348
-0.037804388 -0.07566148 1.1460001 4288464479
-0.036745016 -0.07566148 1.146 4288068967
-0.035716787 -0.075727522 1.1470001 4287277162
-0.034656502 -0.075727522 1.1470001 4286682733
-0.033625484 -0.075793505 1.148 4287139191
-0.032564275 -0.075793564 1.148 4287728258
-0.031503059 -0.075793564 1.148 4288580497
-0.030441843 -0.075793505 1.148 4289434018
-0.029355038 -0.075727522 1.1470001 4289236129
-0.028294746 -0.075727522 1.1470001 4289040035
-0.027210705 -0.07566148 1.146 4289109167
-0.026151344 -0.07566154 1.146 4288851385
-0.025091982 -0.07566154 1.146 4287805625
-0.024011634 -0.075595498 1.1450001 4286560948
-0.022953197 -0.075595438 1.1450001 4285905326
-0.021894753 -0.075595498 1.1450001 4285710255
-0.020854514 -0.07566148 1.146 4285841837
-0.019795138 -0.07566148 1.146 4285842092
-0.018735766 -0.0756616 1.146 4286563509
-0.017676402 -0.07566148 1.146 4287219383
-0.016617037 -0.07566148 1.1460001 4288268731
-0.015557669 -0.07566148 1.146 4289120956
-0.014498293 -0.07566148 1.146 4289908156
-0.013438936 -0.07566148 1.146 4290300853
-0.012379572 -0.07566154 1.146 4290365869
-0.0113202 -0.07566154 1.146 4290300571
-0.010260835 -0.07566148 1.146 4290235269
-0.0092014633 -0.07566148 1.146 4290170730
-0.0081421025 -0.07566154 1.146 4290040135
-0.0070827305 -0.07566154 1.146 4290172469
-0.006023366 -0.07566148 1.146 4290566702
-0.0049639978 -0.07566154 1.146 4290764331
-0.0039046332 -0.07566148 1.146 4290699052
-0.002847746 -0.075727522 1.1470001 4290830891
-0.0017874613 -0.075727522 1.1470001 4291093547
-0.00072653592 -0.07566154 1.146 4291027752
0.00033283979 -0.07566154 1.146 4291093545
0.0013921969 -0.07566154 1.146 4291027752
0.0024515726 -0.07566148 1.146 4290830373
0.0035109371 -0.07566148 1.146 4290632994
0.0045703053 -0.07566154 1.146 4290567203
0.0056296736 -0.07566148 1.146 4290567203
0.0066890381 -0.07566154 1.146 4290567203
0.0077484027 -0.07566148 1.146 4290567203
0.0088077709 -0.07566148 1.146 4290370340
0.0098671392 -0.07566148 1.146 4290436133
0.010926507 -0.07566148 1.146 4290501926
0.011985868 -0.07566154 1.146 4290567719
0.013045236 -0.07566148 1.146 4290501926
0.014104605 -0.07566154 1.146 4290436133
0.015177198 -0.075727403 1.1470001 4290436133
0.016237497 -0.075727582 1.1470001 4290436133
0.017312877 -0.075793505 1.148 4290501926
0.018374093 -0.075793505 1.148 4290501926
0.019435301 -0.075793564 1.148 4290632742
0.020514376 -0.075859606 1.149 4290632742
0.021557733 -0.075793505 1.148 4290632742
0.022618957 -0.075793564 1.148 4290632742
0.023680173 -0.075793505 1.148 4290764071
0.024719834 -0.075727522 1.1470001 4290764071
0.025757648 -0.07566148 1.146 4290764071
0.026817009 -0.07566148 1.146 4290764071
0.027876377 -0.07566148 1.146 4290895144
0.028935745 -0.07566148 1.146 4290960937
0.029995114 -0.07566154 1.146 4291091754
0.03108158 -0.075727463 1.1470001 4290960168
0.032113843 -0.07566154 1.146 4290893862
0.033173218 -0.07566154 1.146 4290828069
0.034262449 -0.075727522 1.1470001 4290762278
0.035322748 -0.075727522 1.1470001 4290630692
0.036383033 -0.075727463 1.1470001 4290629922
0.037443332 -0.075727522 1.1470001 4290499106
0.038470045 -0.07566148 1.146 4290498852
0.03952942 -0.07566148 1.146 4290499365
0.040588781 -0.07566148 1.146 4290893096
0.041648149 -0.07566154 1.146 4291221035
0.042744778 -0.075727463 1.1470001 4291810351
0.043805078 -0.075727522 1.1470001 4292005676
0.044865362 -0.075727463 1.1470001 4292199719
0.045925662 -0.075727522 1.1470001 4292197922
0.046985939 -0.075727463 1.1470001 4292262176
0.048088133 -0.075793505 1.148 4292261663
0.049149349 -0.075793505 1.148 4292458272
0.050210558 -0.075793564 1.148 4292524065
0.051271774 -0.075793505 1.148 4292393251
0.052332997 -0.075793505 1.148 4292459044
0.053394213 -0.075793505 1.148 4292524837
0.054455429 -0.075793564 1.148 4292524837
0.055516638 -0.075793564 1.148 4292524837
0.056577861 -0.075793564 1.148 4292590630
0.05763907 -0.075793505 1.148 4292590376
0.058751419 -0.075859547 1.149 4292590376
0.059813574 -0.075859547 1.149 4292721194
0.060928687 -0.075925589 1.1500002 4292786987
0.061991751 -0.075925648 1.1500001 4292785963
0.063054822 -0.075925648 1.1500001 4292588584
0.064173639 -0.075991571 1.151 4292456229
0.065237619 -0.075991571 1.151 4292258850
0.066301607 -0.075991631 1.151 4292192800
0.067365594 -0.075991571 1.151 4292061473
0.068489045 -0.076057613 1.1520001 4292061221
0.069614336 -0.076123655 1.1530001 4291799340
0.070680171 -0.076123655 1.153 4291735614
0.071746007 -0.076123714 1.153 4291803742
0.072811857 -0.076123655 1.1530001 4292201620
0.073877692 -0.076123714 1.153 4292532666
0.074878529 -0.076057613 1.1520002 4292534734
0.07594344 -0.076057613 1.1520001 4292207061
0.077008352 -0.076057613 1.1520002 4292273113
0.078073263 -0.076057613 1.1520002 4292010711
0.07906948 -0.075991571 1.151 4292142297
0.080133468 -0.075991571 1.151 4292011224
0.081197456 -0.075991571 1.151 4291550673
0.082261458 -0.075991571 1.151 4290169534
0.083325431 -0.075991571 1.151 4290695365
0.084389433 -0.075991571 1.151 4292603361
0.085453421 -0.075991571 1.151 4292867047
0.086517408 -0.075991631 1.151 4292604129
0.087581396 -0.075991571 1.151 4292932840
0.088645384 -0.075991631 1.151 4293327598
0.089709371 -0.075991631 1.151 4293196013
0.090773359 -0.075991631 1.151 4292801255
0.091837347 -0.075991571 1.151 4292801254
0.093062773 -0.076123655 1.1530001 4293261805
0.094210237 -0.076189697 1.154 4293589743
0.095359564 -0.076255739 1.155 4293589743
0.096427247 -0.076255739 1.1550001 4293458417
-0.12885463 -0.075186133 1.155 4287528013
-0.12789759 -0.075251222 1.1559999 4289439101
-0.12671927 -0.075186133 1.155 4291086502
-0.125434 -0.075055897 1.1530001 4292008894
-0.12404459 -0.074860692 1.1500001 4292273354
-0.12298151 -0.074860573 1.1500001 4292273357
-0.12191844 -0.074860573 1.1500001 4292010442
-0.12075028 -0.074795544 1.149 4291878599
-0.11958398 -0.074730396 1.148 4291944647
-0.11852277 -0.074730396 1.148 4292208075
-0.11735924 -0.074665308 1.1470001 4292208589
-0.11629893 -0.074665368 1.1470001 4291945417
-0.11513817 -0.074600279 1.146 4291616452
-0.11407882 -0.074600279 1.146 4291748040
-0.11292082 -0.074535131 1.1450001 4292011212
-0.11186238 -0.074535072 1.1450001 4291419076
-0.1109007 -0.074600279 1.146 4290366389
-0.10984133 -0.07460022 1.146 4290036911
-0.10878198 -0.074600279 1.146 4290168240
-0.10781661 -0.074665308 1.1470001 4290234034
-0.10684938 -0.074730456 1.148 4290168240
-0.10578817 -0.074730396 1.148 4290102186
-0.10472696 -0.074730337 1.148 4290102435
-0.10366574 -0.074730456 1.148 4290036893
-0.10260452 -0.074730396 1.148 4289971855
-0.10145486 -0.074665308 1.1470001 4289907069
-0.10030703 -0.07460022 1.146 4289381729
-0.099247664 -0.07460022 1.146 4288658755
-0.098102629 -0.074535072 1.1450001 4288001581
-0.097044155 -0.074535131 1.1450001 4287540768
-0.095985733 -0.074535131 1.1450001 4287474972
-0.094844386 -0.074469984 1.1440001 4287474971
-0.093786865 -0.074470043 1.1440001 4287672349
-0.092729345 -0.074469984 1.1440001 4287935776
-0.091751963 -0.074535131 1.1450002 4288198945
-0.090693519 -0.074535131 1.1450001 4288791332
-0.089635074 -0.074535191 1.1450001 4289252135
-0.08857663 -0.074535131 1.1450001 4289449513
-0.087594628 -0.074600279 1.146 4289515309
-0.086459756 -0.074535131 1.1450001 4289712184
-0.085401312 -0.074535131 1.1450001 4289842769
-0.084342867 -0.074535131 1.1450001 4290367609
-0.083284415 -0.074535072 1.1450001 4290892442
-0.082225986 -0.074535131 1.1450001 4291155116
-0.081167541 -0.074535072 1.1450002 4291154613
-0.080109097 -0.074535131 1.1450001 4291023288
-0.079050653 -0.074535131 1.1450001 4290957497
-0.077992201 -0.074535131 1.1450001 4291023290
-0.076933771 -0.074535131 1.1450001 4290957754
-0.075875327 -0.074535131 1.1450001 4290826422
-0.074816883 -0.074535131 1.1450001 4290497714
-0.073758438 -0.074535191 1.1450001 4290234803
-0.072699994 -0.074535072 1.1450001 4289971631
-0.071641564 -0.074535131 1.1450001 4289773737
-0.070583105 -0.074535131 1.1450001 4289379235
-0.069524668 -0.074535072 1.1450001 4288525977
-0.068466224 -0.074535072 1.1450001 4287606931
-0.067466661 -0.074600279 1.146 4287214487
-0.066407286 -0.074600279 1.1460001 4287019935
-0.065347925 -0.07460022 1.146 4287086502
-0.064232454 -0.074535072 1.1450001 4286890665
-0.063174024 -0.074535131 1.1450001 4286825898
-0.062115569 -0.074535131 1.1450001 4286695082
-0.061003804 -0.074470043 1.1440001 4286563752
-0.059946284 -0.074469984 1.1440001 4286102942
-0.058888763 -0.074469984 1.1440001 4285575310
-0.057831246 -0.074469984 1.1440001 4285113729
-0.056823362 -0.074535191 1.1450001 4284783994
-0.055764914 -0.074535191 1.1450001 4284849269
-0.054754257 -0.074600279 1.146 4285111924
-0.053694893 -0.074600279 1.146 4285373293
-0.052635524 -0.074600279 1.146 4286094697
-0.051576149 -0.074600279 1.146 4286947169
-0.050516788 -0.074600279 1.146 4288062301
-0.049457423 -0.074600279 1.146 4288916828
-0.048398055 -0.07460022 1.146 4289903458
-0.047338679 -0.074600279 1.146 4290035294
-0.046238925 -0.074535131 1.1450001 4289904218
-0.045180496 -0.074535131 1.1450001 4289708118
-0.044122051 -0.074535191 1.1450001 4288985675
-0.043063603 -0.074535131 1.1450001 4287606330
-0.042041846 -0.074600339 1.146 4286490415
-0.040982481 -0.07460022 1.146 4286360112
-0.039923109 -0.07460022 1.1460001 4286820150
-0.038863741 -0.07460022 1.146 4287477827
-0.037771389 -0.074535131 1.1450002 4288003921
-0.036745012 -0.07460022 1.146 4288529510
-0.035685644 -0.074600279 1.146 4288395897
-0.034626283 -0.07460022 1.146 4287998592
-0.033566914 -0.07460022 1.146 4287206012
-0.032507546 -0.074600279 1.146 4287793798
-0.031475618 -0.074665308 1.1470001 4288711570
-0.03038881 -0.07460022 1.146 4289301916
-0.02932944 -0.07460022 1.146 4289104285
-0.028245404 -0.074535131 1.1450001 4288579483
-0.027186967 -0.074535191 1.1450001 4288582310
-0.0261057 -0.074469984 1.1440001 4288258732
-0.025048185 -0.074470043 1.1440001 4287477173
-0.023990665 -0.074469984 1.1440001 4286495410
-0.022933144 -0.074469984 1.1440001 4285643181
-0.021875627 -0.074470043 1.1440001 4285578669
-0.020818111 -0.074470043 1.1440001 4286104495
-0.019760594 -0.074470043 1.1440001 4286104494
-0.018719424 -0.074535191 1.1450001 4286498482
-0.017660975 -0.074535131 1.1450002 4287285945
-0.016602539 -0.074535131 1.1450001 4288268731
-0.015544094 -0.074535191 1.1450001 4289055163
-0.01448565 -0.074535131 1.1450001 4289776568
-0.013415486 -0.074469984 1.1440001 4290169521
-0.012357965 -0.074469984 1.1440001 4290234536
-0.011300445 -0.074469984 1.1440001 4290168730
-0.010242924 -0.074469984 1.1440001 4290103684
-0.0091854036 -0.074470103 1.1440001 4289973097
-0.008127898 -0.074470043 1.1440001 4289843271
-0.0070703737 -0.074470043 1.1440001 4290172469
-0.0060128495 -0.074469984 1.1440001 4290698033
-0.0049553327 -0.074469984 1.1440001 4290830124
-0.0038978197 -0.074470043 1.1440001 4290961710
-0.0028402992 -0.074470043 1.1440001 4290896684
-0.0017858967 -0.074600279 1.146 4290896936
-0.00072653592 -0.074600279 1.146 4290896934
0.00033254176 -0.074535131 1.1450001 4290896168
0.0013909899 -0.074535191 1.1450001 4290764582
0.0024494231 -0.074535131 1.1450001 4290567203
0.0035078712 -0.074535191 1.1450001 4290501410
0.0045663118 -0.074535072 1.1450001 4290501156
0.0056247562 -0.074535072 1.1450001 4290501156
0.0066832006 -0.074535131 1.1450001 4290370340
0.007741645 -0.074535131 1.145 4290370340
0.0088000894 -0.074535072 1.1450001 4290370340
0.0098585337 -0.074535131 1.1450001 4290436133
0.010916971 -0.074535131 1.1450001 4290501926
0.011975415 -0.074535191 1.1450001 4290501926
0.013033859 -0.074535131 1.1450001 4290501926
0.014092296 -0.074535131 1.1450001 4290501926
0.015163973 -0.07460022 1.146 4290436133
0.016237497 -0.074665368 1.1470001 4290436133
0.017297782 -0.074665248 1.1470001 4290436133
0.018374093 -0.074730456 1.148 4290501926
0.019435301 -0.074730456 1.148 4290501926
0.020496517 -0.074730396 1.148 4290501926
0.021557733 -0.074730456 1.148 4290632742
0.02259925 -0.074665248 1.1470001 4290632742
0.023659542 -0.074665308 1.1470001 4290632742
0.024698272 -0.07460022 1.146 4290698535
0.025757641 -0.074600279 1.1460001 4290764071
0.026817016 -0.074600279 1.146 4290764071
0.027852058 -0.074535131 1.1450001 4290829864
0.028935745 -0.074600279 1.146 4290895657
0.029995114 -0.074600279 1.146 4290960938
0.031054482 -0.07460022 1.146 4290895145
0.032113843 -0.07460022 1.146 4290960168
0.033173211 -0.074600279 1.146 4290894375
0.034232579 -0.07460016 1.146 4290631719
0.03529194 -0.074600279 1.146 4290565156
0.036351316 -0.074600339 1.146 4290499106
0.037410684 -0.07460022 1.146 4290498336
0.038470045 -0.074600279 1.146 4290498338
0.03952942 -0.074600279 1.146 4290629924
0.040588789 -0.074600279 1.146 4290892070
0.041648149 -0.07460022 1.146 4291285801
0.042707518 -0.074600279 1.146 4291941421
0.043766886 -0.07460022 1.146 4292202540
0.04486537 -0.074665248 1.1470001 4292528170
0.045885615 -0.074600279 1.146 4292460581
0.046985954 -0.074665368 1.1470001 4292393761
0.048046246 -0.074665308 1.1470001 4292327455
0.049149364 -0.074730396 1.148 4292262176
0.050166823 -0.074665248 1.1470001 4292262176
0.051227115 -0.074665308 1.1470001 4292327458
0.052287415 -0.074665368 1.1470001 4292459044
0.053347699 -0.074665308 1.1470001 4292459044
0.054455437 -0.074730515 1.148 4292393251
0.055516638 -0.074730456 1.148 4292392997
0.056577854 -0.074730456 1.148 4292590376
0.05763907 -0.074730396 1.148 4292786985
0.058751419 -0.074795544 1.149 4292786985
0.059813567 -0.074795544 1.149 4292786474
0.060875699 -0.074795544 1.149 4292852267
0.061937839 -0.074795485 1.149 4292851756
0.063054815 -0.074860632 1.1500001 4292588584
0.064117879 -0.074860632 1.1500001 4292521765
0.06518095 -0.074860692 1.1500001 4292324386
0.066244021 -0.074860692 1.1500001 4292323616
0.067307077 -0.074860632 1.1500001 4292126753
0.068429589 -0.07492578 1.151 4292127015
0.069553956 -0.074990869 1.1520001 4291799342
0.070618868 -0.074990869 1.1520001 4291735613
0.071683794 -0.074990809 1.1520001 4291803742
0.072748706 -0.074990809 1.1520001 4292135568
0.073813602 -0.074990809 1.1520001 4292467126
0.07481353 -0.074925721 1.151 4292469195
0.07594344 -0.074990809 1.1520001 4292273106
0.077008352 -0.074990809 1.1520001 4292076502
0.078005493 -0.074925721 1.151 4291945429
0.079069495 -0.074925721 1.151 4292076505
0.08006385 -0.074860632 1.1500001 4292076762
0.081126928 -0.074860692 1.1500001 4291682773
0.082189992 -0.074860632 1.1500001 4290827977
0.083253056 -0.074860692 1.1500002 4291288013
0.08431612 -0.074860573 1.1500001 4292604129
0.085379168 -0.074860632 1.1500001 4292867047
0.086442232 -0.074860632 1.1500001 4292603875
0.087505311 -0.074860692 1.1500001 4292932840
0.088568375 -0.074860632 1.1500001 4293393391
0.089631438 -0.074860632 1.1500001 4293196013
0.090694502 -0.074860632 1.1500001 4292801255
0.091757566 -0.074860692 1.1500001 4292801254
0.092982039 -0.074990809 1.1520002 4293261805
0.094128609 -0.075055897 1.153 4293589743
0.095276996 -0.075121045 1.154 4293589743
0.096343756 -0.075121045 1.1539999 4293457904
-0.12885463 -0.074116588 1.155 4287792214
-0.12778696 -0.074116528 1.155 4289637764
-0.12660956 -0.074052334 1.1539999 4291350187
-0.1253252 -0.073924005 1.1520002 4292075202
-0.12382883 -0.073667288 1.148 4292339148
-0.1227676 -0.073667347 1.148 4292207821
-0.12170641 -0.073667288 1.148 4292010443
-0.1206452 -0.073667347 1.148 4291812807
-0.11958398 -0.073667288 1.148 4291878856
