# .PCD v0.7 - Point Cloud Data file format
VERSION 0.7
FIELDS x y z rgba
SIZE 4 4 4 4
TYPE F F F U
COUNT 1 1 1 1
WIDTH 1033
HEIGHT 1
VIEWPOINT 0 0 0 1 0 0 0
POINTS 1033
DATA ascii
0.77471936 0.018714495 -0.10559469 4290825185
0.77524638 0.017765827 -0.10650975 4290890976
0.77528733 0.016725786 -0.10655439 4290891486
0.77532828 0.015685745 -0.10659897 4290957018
0.77536923 0.014645703 -0.10664362 4291153621
0.77541018 0.013605662 -0.1066882 4291349961
0.77545112 0.01256562 -0.10673279 4291808443
0.77549207 0.011525571 -0.10677743 4291872418
0.77553302 0.01048553 -0.10682201 4292002438
0.77606028 0.0095285401 -0.10773736 4292264569
0.77610129 0.0084875748 -0.10778201 4292199030
0.77614224 0.0074466094 -0.10782671 4292133236
0.77618325 0.0064056441 -0.10787135 4292330099
0.77622426 0.0053646788 -0.107916 4292395377
0.77675176 0.0044021681 -0.1088317 4292591216
0.77679276 0.0033602789 -0.10887641 4292722286
0.77683377 0.0023183897 -0.10892105 4292722284
0.77687478 0.0012765005 -0.10896575 4292590698
0.77642912 0.00015985221 -0.10813922 4292524392
0.77647012 -0.00088111311 -0.10818386 4292523878
0.77651113 -0.0019220784 -0.1082285 4292391266
0.77655208 -0.0029630437 -0.10827315 4292258912
0.77659309 -0.0040040091 -0.10831779 4291864926
0.77663404 -0.0050449744 -0.10836244 4291667547
0.7771619 -0.0060167089 -0.10927856 4291732057
0.77720296 -0.0070585981 -0.10932326 4291600469
0.77724397 -0.0081004873 -0.10936797 4291731030
0.77777195 -0.0090759322 -0.11028409 4291665237
0.77781302 -0.010118738 -0.11032885 4291861587
0.77785408 -0.011161551 -0.11037356 4291862101
0.77789515 -0.012204364 -0.11041832 4291928407
0.77793622 -0.01324717 -0.11046302 4291863641
0.77797723 -0.014289983 -0.11050773 4291929949
0.7780183 -0.015332796 -0.11055249 4291865187
0.77805936 -0.016375601 -0.11059719 4291800432
0.77810043 -0.017418414 -0.11064196 4291604609
0.7781415 -0.018461227 -0.11068666 4290883479
0.77818251 -0.019504033 -0.11073136 4291346873
0.77871102 -0.020490542 -0.11164814 4291876831
0.77875215 -0.021534279 -0.11169291 4292076014
0.77928066 -0.02252356 -0.11260974 4292142324
0.77932179 -0.023568217 -0.11265457 4292076790
0.77936298 -0.024612874 -0.11269939 4292142331
0.7794041 -0.025657527 -0.11274421 4291879674
0.7799328 -0.026651427 -0.11366111 4291880188
0.77997398 -0.027697004 -0.11370599 4291880188
0.78001517 -0.028742585 -0.11375082 4292011258
0.7800563 -0.029788166 -0.1137957 4292077051
0.77960974 -0.030880809 -0.11296821 4292208127
0.77916306 -0.031971615 -0.1121406 4291944955
0.77969199 -0.032970123 -0.11305785 4292010748
0.77973312 -0.03401478 -0.11310267 4291879162
0.77977425 -0.035059437 -0.11314744 4291945214
0.77981538 -0.036104094 -0.11319226 4291747837
0.7798565 -0.037148751 -0.11323708 4291878911
0.77989763 -0.038193405 -0.11328185 4291878399
0.77993876 -0.039238065 -0.11332667 4291877630
0.77997988 -0.040282719 -0.11337149 4292073469
0.78002101 -0.041327376 -0.11341631 4292531455
0.78006214 -0.042372033 -0.11346108 4292726268
0.78010327 -0.043416686 -0.1135059 4292789238
0.78014439 -0.044461347 -0.11355072 4292524013
0.78018552 -0.045506001 -0.11359555 4292391402
0.78022665 -0.046550658 -0.11364031 4292127717
0.78075612 -0.047563009 -0.11455804 4291995363
0.7803089 -0.048639968 -0.11372995 4291797984
0.78035003 -0.049684629 -0.11377478 4291797986
0.78039116 -0.050729286 -0.11381954 4291995365
0.78043228 -0.051773943 -0.11386436 4291732707
0.78047341 -0.052818596 -0.11390918 4291470048
0.78002596 -0.053890016 -0.11308068 4291733733
0.78006709 -0.054933749 -0.11312544 4291471588
0.78010815 -0.055977482 -0.11317021 4291471589
0.78014928 -0.057021219 -0.11321497 4291735788
0.78019035 -0.058064952 -0.11325979 4292262134
0.78072017 -0.059086531 -0.114178 4292197368
0.7807613 -0.060131192 -0.11422282 4292198649
0.78080243 -0.061175849 -0.11426765 4292331775
0.78084356 -0.062220506 -0.11431241 4292267263
0.78088468 -0.06326516 -0.11435723 4292204031
0.78141475 -0.064292282 -0.11527562 4291944191
0.78145593 -0.065337859 -0.11532044 4291683839
0.78149706 -0.066383436 -0.11536533 4291028735
0.78153825 -0.067429021 -0.11541015 4290963455
0.78206855 -0.068460748 -0.11632884 4291094783
0.78210974 -0.069507241 -0.11637372 4291292159
0.78215092 -0.07055375 -0.1164186 4291292415
0.78268129 -0.071589164 -0.11733747 4291226879
0.78321177 -0.072626442 -0.11825627 4291227134
0.78276378 -0.073684022 -0.11742729 4291227134
0.78280503 -0.074731439 -0.11747223 4291292412
0.78284627 -0.075778864 -0.11751717 4291292412
0.78288746 -0.076826289 -0.11756212 4291358207
0.78292871 -0.077873714 -0.117607 4291358207
0.78296995 -0.078921139 -0.11765194 4291292414
0.7830112 -0.079968564 -0.11769688 4291358207
0.78305244 -0.081015989 -0.11774176 4291423999
0.78358322 -0.082061581 -0.11866093 4291424255
0.78362447 -0.08310993 -0.11870593 4291292671
0.78415543 -0.084158257 -0.11962533 4291096319
0.78419673 -0.085207529 -0.11967033 4289979129
0.78423804 -0.086256802 -0.11971533 4287677658
0.784769 -0.087308832 -0.12063479 4286100166
0.78481036 -0.088359028 -0.1206798 4286101449
0.78485167 -0.089409225 -0.12072486 4285839565
0.78538293 -0.090464935 -0.12164456 4285708751
0.78542429 -0.091516055 -0.12168968 4285905106
0.78595567 -0.092574559 -0.1226095 4286036435
0.78599709 -0.093626596 -0.12265462 4286166479
0.78652841 -0.094687872 -0.12357444 4287743451
0.78656983 -0.095740825 -0.12361962 4291556862
0.78710139 -0.09680485 -0.12453967 4292476671
0.78714293 -0.097858734 -0.12458491 4292475903
0.78718442 -0.098912627 -0.12463009 4292541439
0.78967673 -0.10003569 -0.12905025 4293001215
0.79118907 -0.10113847 -0.13172066 4293132287
0.79221129 -0.10223112 -0.13351631 4292869631
0.7721926 0.12144127 -0.10604137 4286016094
0.77223366 0.12039753 -0.10608613 4285884511
0.77131128 0.1189939 -0.1043967 4285687646
0.76894361 0.1170569 -0.10010582 4285491556
0.76850259 0.11584153 -0.099283099 4285558125
0.76854336 0.11480517 -0.099327505 4285297272
0.76810235 0.11359259 -0.098504782 4286813853
0.76814312 0.11255715 -0.098549187 4288855750
0.76818389 0.11152173 -0.098593593 4290632421
0.76822466 0.11048631 -0.098638058 4290830828
0.76826543 0.10945088 -0.098682463 4291028463
0.7683062 0.10841545 -0.098726869 4290700012
0.76882899 0.10755073 -0.0996387 4290436583
0.76886982 0.10651437 -0.099683106 4290568426
0.76939279 0.10564689 -0.10059518 4290831856
0.76943362 0.10460962 -0.1006397 4290963699
0.76947445 0.10357233 -0.10068417 4290634736
0.76951534 0.10253506 -0.10072869 4290437357
0.76907378 0.10133263 -0.099905372 4290634221
0.76911461 0.10029628 -0.099949837 4290765807
0.76915538 0.09925992 -0.099994302 4290371564
0.76871383 0.098061167 -0.099170983 4289911013
0.76827216 0.096864246 -0.098347425 4289975525
0.76831287 0.095829733 -0.098391831 4290107111
0.76787108 0.094635598 -0.097568154 4290041835
0.76839435 0.093760721 -0.098480582 4289976042
0.76843506 0.092726223 -0.098524928 4290041320
0.76847583 0.091691725 -0.098569274 4289975527
0.76899916 0.090813152 -0.099481821 4289843427
0.76903993 0.08977773 -0.099526227 4289777633
0.7690807 0.088742308 -0.099570692 4289973987
0.76912147 0.087706886 -0.099615097 4289908194
0.76916224 0.086671449 -0.099659503 4289842148
0.76920301 0.085636012 -0.099703908 4289776355
0.76924378 0.08460059 -0.099748313 4289709539
0.76928455 0.083565168 -0.099792719 4289642977
0.76932532 0.082529746 -0.099837124 4289969636
0.76936609 0.081494309 -0.09988153 4290099424
0.7694068 0.080458887 -0.099925935 4290424028
0.76944757 0.07942345 -0.099970341 4290288852
0.76948833 0.078388028 -0.10001481 4290022602
0.7695291 0.077352606 -0.10005921 4289888450
0.76956987 0.076317169 -0.10010362 4289951681
0.77009386 0.075423859 -0.10101664 4289950655
0.77013463 0.074387498 -0.10106111 4289884095
0.77017546 0.073351137 -0.10110557 4289751996
0.77069962 0.072454147 -0.10201889 4289620158
0.77074045 0.071416862 -0.10206336 4289488572
0.77078128 0.070379578 -0.10210788 4289356986
0.77082211 0.069342308 -0.10215235 4289291193
0.77086294 0.068305038 -0.10219687 4289356986
0.77090377 0.067267768 -0.10224134 4289620158
0.77046102 0.066096686 -0.10141671 4289686466
0.77050185 0.06506034 -0.10146117 4289686466
0.77005905 0.063892029 -0.10063654 4289750976
0.76961619 0.062725566 -0.099811673 4289750976
0.7691732 0.061560951 -0.098986804 4289685951
0.76921391 0.060527377 -0.09903115 4289685951
0.76925462 0.059493788 -0.099075437 4289751744
0.76929528 0.058460198 -0.099119782 4289751744
0.76981986 0.057553045 -0.10003358 4289751744
0.76986057 0.056518547 -0.10007793 4289751744
0.77038521 0.055608608 -0.10099185 4289883330
0.77090985 0.054696836 -0.10190564 4289883330
0.77095068 0.053660475 -0.10195011 4289817537
0.77147549 0.052745931 -0.10286421 4289751744
0.77151638 0.051708661 -0.10290867 4289620669
0.77155721 0.050671391 -0.1029532 4289686462
0.77159804 0.049634121 -0.10299766 4289686462
0.77163887 0.048596852 -0.10304219 4289554876
0.7716797 0.047559567 -0.10308665 4289357497
0.77172053 0.046522297 -0.10313118 4289225911
0.77127707 0.045369677 -0.10230571 4289291958
0.7713179 0.044333331 -0.10235018 4289292472
0.77087438 0.043183468 -0.10152477 4289555899
0.77091515 0.042148046 -0.10156918 4289819841
0.77144027 0.041224264 -0.10248351 4290215111
0.7714811 0.040187918 -0.10252798 4290545357
0.77152187 0.039151572 -0.10257244 4290744532
0.7715627 0.038115218 -0.10261691 4291009241
0.77160347 0.037078865 -0.10266131 4291209442
0.77164429 0.036042519 -0.10270578 4291343334
0.77168506 0.035006173 -0.10275024 4291279595
0.77124125 0.033864625 -0.10192448 4291412719
0.77128202 0.032829195 -0.10196888 4291348463
0.77180749 0.03189712 -0.10288358 4291283440
0.77184832 0.030860759 -0.10292804 4291217646
0.77188909 0.029824413 -0.10297251 4291086573
0.77192992 0.02878806 -0.10301691 4291086571
0.77197069 0.027751707 -0.10306138 4291022059
0.77201152 0.026715361 -0.10310584 4290825193
0.77205229 0.025679007 -0.10315031 4290562789
0.77209312 0.024642661 -0.10319471 4290562789
0.77213389 0.023606308 -0.10323918 4290562789
0.77217472 0.022569962 -0.10328364 4290431715
0.77270067 0.021627732 -0.10419893 4290497508
0.7727415 0.020590447 -0.1042434 4290891237
0.77326745 0.019645452 -0.10515869 4290825444
0.77379352 0.01869861 -0.10607415 4290890978
0.77383447 0.017659493 -0.10611874 4290825696
0.77387536 0.016620368 -0.10616326 4290759901
0.77440161 0.015669845 -0.10707885 4290891738
0.77444255 0.014629804 -0.10712349 4290957271
0.7744835 0.013589762 -0.10716808 4291218634
0.77452445 0.012549721 -0.10721266 4291808443
0.7745654 0.011509672 -0.10725731 4291872418
0.77460635 0.01046963 -0.10730189 4292002439
0.7746473 0.0094295889 -0.10734653 4292199289
0.77468824 0.0083895475 -0.10739112 4292264569
0.77472919 0.007349506 -0.1074357 4292199029
0.7752558 0.0063897297 -0.10835165 4292461174
0.77529675 0.0053487644 -0.10839629 4292461170
0.77533776 0.004307799 -0.10844094 4292591729
0.77586442 0.0033443496 -0.10935712 4292591727
0.77590549 0.0023024604 -0.10940182 4292591214
0.77546066 0.0011849031 -0.10857487 4292590700
0.77550167 0.00014393777 -0.10861951 4292524392
0.77554268 -0.00089702755 -0.10866416 4292458085
0.77558362 -0.0019379929 -0.1087088 4292325475
0.77562463 -0.0029789507 -0.1087535 4292062303
0.77566558 -0.0040199235 -0.10879815 4291995481
0.77570659 -0.0050608888 -0.10884279 4291732309
0.7757476 -0.0061018467 -0.10888743 4291665746
0.77627462 -0.0070745274 -0.10980403 4291599955
0.77631569 -0.0081164166 -0.10984868 4291665237
0.7763567 -0.0091583058 -0.10989338 4291599444
0.77639771 -0.010200195 -0.10993809 4291795540
0.77692497 -0.011177495 -0.11085474 4291927894
0.77696604 -0.012220301 -0.11089945 4291994200
0.7770071 -0.013263114 -0.11094415 4291863643
0.77704811 -0.014305927 -0.11098891 4291929438
0.77708918 -0.015348732 -0.11103362 4292061800
0.77713025 -0.016391546 -0.11107838 4291865460
0.77717131 -0.017434359 -0.11112309 4291538048
0.77721238 -0.018477164 -0.11116785 4291079831
0.77725339 -0.019519977 -0.11121255 4291543226
0.77778107 -0.020506501 -0.11212975 4292007901
0.7778222 -0.021550231 -0.11217451 4292207346
0.77786326 -0.022593968 -0.11221927 4292338933
0.77790439 -0.023637701 -0.11226404 4292142585
0.77794546 -0.024681434 -0.1123088 4291944954
0.77798659 -0.025725167 -0.11235356 4291945467
0.77802765 -0.0267689 -0.11239833 4292011260
0.77806872 -0.027812634 -0.11244309 4292011258
0.77810985 -0.028856367 -0.11248785 4292077051
0.77815092 -0.0299001 -0.11253262 4292142846
0.77819204 -0.030943833 -0.11257738 4291945214
0.77823311 -0.03198757 -0.11262214 4291879423
0.77827418 -0.033031303 -0.1126669 4291879421
0.77831531 -0.034075037 -0.11271167 4291747835
0.77835637 -0.03511877 -0.11275649 4291944442
0.7783975 -0.036162503 -0.11280125 4291812858
0.77843857 -0.037206233 -0.11284602 4291877883
0.77847964 -0.038249969 -0.11289078 4291746043
0.77852076 -0.039293699 -0.11293554 4291482359
0.77856183 -0.040337436 -0.11298031 4291349746
0.77860296 -0.041381173 -0.11302507 4291215596
0.77864403 -0.042424902 -0.11306983 4290884064
0.77868509 -0.043468639 -0.1131146 4290815448
0.77872622 -0.044512369 -0.11315936 4290550223
0.77876729 -0.045556106 -0.11320412 4290746577
0.77880841 -0.046599835 -0.11324888 4290943443
0.77884948 -0.047643572 -0.11329365 4291009495
0.77889055 -0.048687302 -0.11333841 4291141081
0.77893168 -0.049731039 -0.11338323 4290943702
0.77897274 -0.050774772 -0.113428 4290943702
0.7795015 -0.051789913 -0.11434639 4291009238
0.77905494 -0.052862238 -0.11351752 4290811859
0.77909607 -0.053905971 -0.11356229 4290746326
0.77913713 -0.054949705 -0.11360705 4290549204
0.7791782 -0.055993438 -0.11365181 4290090452
0.77921933 -0.057037175 -0.11369658 4290156758
0.7792604 -0.058080908 -0.11374134 4290091478
0.77930152 -0.059124641 -0.1137861 4290026199
0.77934259 -0.060168374 -0.11383086 4289961689
0.77938366 -0.061212108 -0.11387563 4290029022
0.77991283 -0.062236477 -0.11479443 4290096868
0.77995396 -0.063281134 -0.11483926 4290099178
0.77999508 -0.064325787 -0.11488408 4290299378
0.78052431 -0.065353841 -0.11580288 4290499066
0.7805655 -0.066399425 -0.11584777 4290829823
0.78060663 -0.067444995 -0.11589259 4290962943
0.78064781 -0.06849058 -0.11593741 4291292159
0.780689 -0.069536164 -0.11598229 4291490047
0.78121853 -0.070569739 -0.11690146 4291423999
0.78125972 -0.071616247 -0.11694634 4291358719
0.7813009 -0.072662748 -0.11699122 4291358718
0.78134209 -0.073709249 -0.1170361 4291162109
0.78138334 -0.074755751 -0.11708105 4291162107
0.78142452 -0.075802252 -0.11712593 4291358972
0.78195423 -0.076842308 -0.11804539 4291423998
0.78199548 -0.077889726 -0.11809027 4291555327
0.78203672 -0.078937158 -0.11813521 4291686143
0.78158933 -0.079988264 -0.11730546 4291751935
0.78211921 -0.081032 -0.1182251 4291620095
0.78216046 -0.082079425 -0.11826998 4291489279
0.78220165 -0.08312685 -0.11831492 4291292671
0.78273171 -0.084174298 -0.11923462 4290833919
0.78277296 -0.085222647 -0.11927956 4290505727
0.78281426 -0.086270995 -0.11932451 4288138978
0.78334445 -0.087322116 -0.12024444 4286165701
0.78338575 -0.088371381 -0.1202895 4286035142
0.78342706 -0.089420654 -0.12033451 4285905099
0.78395736 -0.09047547 -0.12125444 4285839565
0.78399867 -0.091525666 -0.12129951 4285773520
0.78404003 -0.092575856 -0.12134457 4285970642
0.78457057 -0.093634367 -0.1222648 4285837512
0.78461194 -0.09468548 -0.12230992 4288006622
0.78465331 -0.095736593 -0.12235498 4291557118
0.78518397 -0.096798792 -0.1232754 4292410879
0.78571463 -0.097862847 -0.12419575 4292541439
0.78575605 -0.0989158 -0.12424093 4292541439
0.78824431 -0.10003802 -0.12866318 4293066751
0.78926468 -0.10112515 -0.13045943 4293132287
0.79077464 -0.10223166 -0.13313127 4292869631
0.77030098 0.12106175 -0.10478806 4285753947
0.77034199 0.12001986 -0.10483277 4285688156
0.76894033 0.11843818 -0.10227495 4285753952
0.76753843 0.11686204 -0.099716783 4285360484
0.7675792 0.11582569 -0.099761248 4285296494
0.76713902 0.11461218 -0.098938167 4285429883
0.76669878 0.11340051 -0.098114848 4287010978
0.76673949 0.11236601 -0.098159194 4289118668
0.76678026 0.11133152 -0.09820354 4290830314
0.76682097 0.11029699 -0.098247945 4290831854
0.76686168 0.10926249 -0.098292291 4290766060
0.76690245 0.10822799 -0.098336697 4290568681
0.7674244 0.1073642 -0.099249005 4290371045
0.76842779 0.10666832 -0.10102934 4290568681
0.76846862 0.10563103 -0.1010738 4290832113
0.76850945 0.10459376 -0.10111827 4290766320
0.76855028 0.10355648 -0.10116279 4290568942
0.76859111 0.10251921 -0.10120726 4290568943
0.76863194 0.10148194 -0.10125178 4290700527
0.76819122 0.10028043 -0.10042804 4290700527
0.76823205 0.09924408 -0.10047245 4290436844
0.76779127 0.098045327 -0.099648714 4289976550
0.76735044 0.096848421 -0.098824739 4289910502
0.76739115 0.095813923 -0.098869145 4289910502
0.76695013 0.094619788 -0.098045051 4289844455
0.76747262 0.093744896 -0.098957896 4289844455
0.76751333 0.092710398 -0.099002242 4289910248
0.7675541 0.0916759 -0.099046648 4289844455
0.7680766 0.090797327 -0.099959612 4289909734
0.76811737 0.089761905 -0.10000402 4289843941
0.76815814 0.088726483 -0.10004842 4289908451
0.76868087 0.087844215 -0.10096145 4289842658
0.76872164 0.086807869 -0.10100585 4289711075
0.76876247 0.085771523 -0.10105032 4289645282
0.76880324 0.084735177 -0.10109478 4289644256
0.76836199 0.083549343 -0.10027045 4289709022
0.76840276 0.082513906 -0.10031486 4289969886
0.76844352 0.081478469 -0.10035932 4290099421
0.76848429 0.080443047 -0.10040373 4290096600
0.76852506 0.079407625 -0.10044813 4290093779
0.76856583 0.078372188 -0.10049254 4290089929
0.7686066 0.077336766 -0.10053694 4289692606
0.76864731 0.076301329 -0.10058135 4289952959
0.76917046 0.075408004 -0.10149485 4289951679
0.76921129 0.074371658 -0.10153925 4289753791
0.76925206 0.073335312 -0.10158372 4289621437
0.76977539 0.072438292 -0.10249752 4289620669
0.76981628 0.071401007 -0.10254198 4289620412
0.76985711 0.070363723 -0.10258645 4289553336
0.7703805 0.069463022 -0.10350025 4289356470
0.76993877 0.068289183 -0.10267544 4289423031
0.7699796 0.067251913 -0.10271996 4289555130
0.76953769 0.066080861 -0.10189492 4289620669
0.76957852 0.0650445 -0.10193932 4289554878
0.76913655 0.063876204 -0.10111427 4289816769
0.76869446 0.062709741 -0.10028905 4289750976
0.76825231 0.061545156 -0.099463701 4289554365
0.76829302 0.060511567 -0.099508047 4289686205
0.76833367 0.059477977 -0.099552333 4289751998
0.76837438 0.058444403 -0.099596679 4289751998
0.76889813 0.05753722 -0.1005109 4289882814
0.76942188 0.056628205 -0.10142517 4289882814
0.76946265 0.055592768 -0.10146958 4289751744
0.77046967 0.054804631 -0.10325384 4289685951
0.77051049 0.053767346 -0.10329831 4289554365
0.77055132 0.052730076 -0.10334283 4289685951
0.77059215 0.051692806 -0.1033873 4289620669
0.77063298 0.050655536 -0.10343176 4289620669
0.77067387 0.049618267 -0.10347629 4289751996
0.7707147 0.048580997 -0.10352075 4289686203
0.77075553 0.047543712 -0.10356528 4289686202
0.77079636 0.046506442 -0.10360974 4289686715
0.77035373 0.045353837 -0.10278392 4289884095
0.7703945 0.044317476 -0.10282838 4290016707
0.77043533 0.04328113 -0.10287279 4289886659
0.7704761 0.042244785 -0.10291725 4289954244
0.77051693 0.041208424 -0.10296172 4290218443
0.7705577 0.040172078 -0.10300618 4290221006
0.77108222 0.039245524 -0.10392118 4290486745
0.77112305 0.038208246 -0.1039657 4290686431
0.77068013 0.037063025 -0.10313952 4290951911
0.7707209 0.036026672 -0.10318398 4291019244
0.77076173 0.034990326 -0.10322839 4291152111
0.77080256 0.033953972 -0.10327286 4291087601
0.77084333 0.032917626 -0.10331732 4291088113
0.77088416 0.031881273 -0.10336179 4290957295
0.77092493 0.030844919 -0.10340619 4290891502
0.77096575 0.029808573 -0.10345066 4290957549
0.77100652 0.028772213 -0.10349512 4290760681
0.77104735 0.027735867 -0.10353959 4290694888
0.77108812 0.026699521 -0.10358399 4290563814
0.77112895 0.02566316 -0.10362846 4290498021
0.77116972 0.024626814 -0.10367292 4290563301
0.77121055 0.023590468 -0.10371739 4290563301
0.77125132 0.022554114 -0.10376179 4290628835
0.77177644 0.021611869 -0.1046775 4290628835
0.77181733 0.020574592 -0.10472202 4290628833
0.77234244 0.019629575 -0.10563773 4290694624
0.77286774 0.018682726 -0.10655361 4290759903
0.77290863 0.017643608 -0.1065982 4290759900
0.77294952 0.016604483 -0.10664272 4290825947
0.77347499 0.015653946 -0.10755873 4290891479
0.77351594 0.014613904 -0.10760337 4290956502
0.77355689 0.013573863 -0.10764796 4291218125
0.77359784 0.012533821 -0.10769254 4291676354
0.77363878 0.011493772 -0.10773718 4291806125
0.77319497 0.01036977 -0.10691017 4292001433
0.77323592 0.0093306527 -0.10695475 4292264332
0.77376157 0.0083736479 -0.107871 4292395906
0.77380252 0.0073336065 -0.10791564 4292264571
0.77384347 0.006293565 -0.10796022 4292198776
0.77388442 0.0052535161 -0.10800481 4292329846
0.77392536 0.0042134821 -0.10804945 4292526198
0.77445126 0.0032509193 -0.10896587 4292591731
0.7744922 0.002209954 -0.10901052 4292656239
0.77453321 0.0011689886 -0.10905516 4292524907
0.77457422 0.00012802333 -0.10909986 4292589419
0.77461517 -0.00091294199 -0.10914451 4292392040
0.77465618 -0.0019539073 -0.10918915 4292193637
0.77469712 -0.0029948652 -0.1092338 4291930465
0.77473813 -0.0040358379 -0.10927844 4291863643
0.77477914 -0.0050768033 -0.10932308 4291534678
0.77482009 -0.0061177611 -0.10936773 4291272017
0.7748611 -0.0071587265 -0.10941237 4291272017
0.77490205 -0.0081996918 -0.10945702 4291533908
0.77494305 -0.0092406571 -0.10950166 4291533910
0.774984 -0.010281622 -0.1095463 4291599192
0.77502501 -0.011322588 -0.10959095 4291599705
0.77506602 -0.012363553 -0.10963559 4291797084
0.77559245 -0.013341784 -0.11055285 4291600986
0.77563351 -0.014383674 -0.11059755 4291799392
0.77567452 -0.015425555 -0.11064225 4291669093
0.77571553 -0.016467445 -0.11068696 4291538800
0.77575654 -0.017509334 -0.1107316 4291277186
0.77579755 -0.018551223 -0.11077631 4291146403
0.77583855 -0.019593112 -0.11082101 4291872712
0.77587962 -0.020635001 -0.11086571 4292402922
0.77592063 -0.021676887 -0.11091036 4292077043
0.77596164 -0.022718776 -0.11095506 4292143096
0.77600265 -0.023760661 -0.11099976 4291880438
0.77604365 -0.024802551 -0.11104441 4291814649
0.77657062 -0.025792785 -0.11196208 4291880442
0.77661169 -0.026835594 -0.11200678 4291880442
0.77665275 -0.027878407 -0.11205155 4291880442
0.77669376 -0.028921217 -0.11209625 4291880188
0.77722096 -0.029916056 -0.11301422 4291880188
0.77726209 -0.030959792 -0.11305898 4292011005
0.77730316 -0.032003526 -0.11310375 4291879419
0.77734429 -0.033047259 -0.11314851 4291878908
0.77738535 -0.034090992 -0.11319327 4291681272
0.77742642 -0.035134725 -0.11323804 4291811323
0.77746755 -0.036178458 -0.1132828 4291875576
0.77750862 -0.037222192 -0.11332756 4291807733
0.77754974 -0.038265925 -0.11337233 4291936239
0.77759081 -0.039309658 -0.11341715 4291735014
0.77763188 -0.040353395 -0.11346191 4291600605
0.77718645 -0.041434944 -0.11263299 4291467992
0.77722752 -0.042477757 -0.11267769 4291204820
0.77726859 -0.04352057 -0.11272246 4291073234
0.7773096 -0.044563375 -0.11276716 4291336152
0.77735066 -0.045606188 -0.11281192 4291335640
0.77739173 -0.046648998 -0.11285663 4291335129
0.7774328 -0.047691807 -0.11290133 4291663324
0.77747387 -0.04873462 -0.11294609 4291663324
0.77751487 -0.04977743 -0.1129908 4291466715
0.77804285 -0.050790727 -0.11390954 4291597531
0.77808392 -0.051834464 -0.11395431 4291596252
0.77812499 -0.052878194 -0.11399907 4291530202
0.77816612 -0.053921927 -0.11404389 4291399127
0.77820718 -0.05496566 -0.11408865 4291267541
0.77824831 -0.056009393 -0.11413342 4291332821
0.77828938 -0.05705313 -0.11417818 4291267028
0.77833045 -0.058096863 -0.11422294 4291201748
0.77837157 -0.059140597 -0.11426771 4290873297
0.77841264 -0.06018433 -0.11431247 4290675920
0.77845377 -0.061228063 -0.11435723 4290808019
0.77898204 -0.062252447 -0.11527646 4290873299
0.77902317 -0.0632971 -0.11532128 4290808017
0.7790643 -0.064341754 -0.11536604 4290939603
0.77910542 -0.065386415 -0.11541086 4291204567
0.77914655 -0.066431068 -0.11545569 4291404513
0.77918768 -0.067475721 -0.11550051 4291538921
0.77922881 -0.068520382 -0.11554527 4291935990
0.77975738 -0.069552146 -0.11646473 4292334079
0.77979857 -0.070597723 -0.11650956 4292534271
0.78032732 -0.071632251 -0.1174292 4292471039
0.77988088 -0.072688878 -0.11659926 4292012031
0.77992207 -0.073734462 -0.11664408 4292013567
0.7799632 -0.074780039 -0.11668897 4291685631
0.78049213 -0.075818256 -0.11760879 4291554557
0.78053331 -0.076864757 -0.11765367 4291686143
0.7805745 -0.077911258 -0.11769855 4291686141
0.78061569 -0.078957766 -0.11774343 4291621118
0.78065693 -0.08000426 -0.11778831 4291621118
0.78069812 -0.081050768 -0.1178332 4291555583
0.78073931 -0.082097262 -0.11787808 4291424255
0.78126842 -0.083142862 -0.1187982 4291358719
0.78130966 -0.084190287 -0.11884314 4291096575
0.78135091 -0.085237712 -0.11888808 4290833151
0.7818802 -0.086287022 -0.11980826 4289255149
0.78192145 -0.087335363 -0.1198532 4286690762
0.78196275 -0.088383719 -0.11989814 4286428871
0.782004 -0.089432068 -0.11994314 4286035655
0.78253353 -0.09048596 -0.12086362 4285839303
0.78257483 -0.09153524 -0.12090862 4285774023
0.78261614 -0.092584506 -0.12095362 4285774023
0.78314567 -0.093642108 -0.12187415 4285706180
0.78367543 -0.094701551 -0.12279487 4288007392
0.7837168 -0.095752664 -0.12283999 4291557630
0.78424662 -0.096814878 -0.12376082 4292345343
0.78477645 -0.097878948 -0.12468165 4292475903
0.78481787 -0.098931901 -0.12472677 4292541439
0.78730202 -0.10005419 -0.12915111 4293066751
0.78832072 -0.10114134 -0.13094819 4293197823
0.78933972 -0.10223219 -0.1327455 4293000703
0.76889271 0.12086406 -0.10440093 4285688666
0.76893365 0.11982309 -0.10444558 4285557340
0.76753443 0.11824236 -0.10188639 4285557088
0.76613498 0.1166672 -0.099327087 4285229412
0.76617575 0.11563177 -0.099371493 4284902250
0.76621652 0.11459634 -0.099415898 4285233020
0.76577705 0.11338469 -0.098592162 4287076774
0.76581776 0.11235019 -0.098636508 4289315793
0.76585853 0.11131569 -0.098680913 4290896364
0.76541889 0.11010771 -0.097856998 4290831597
0.7654596 0.10907414 -0.097901344 4290634474
0.76550025 0.10804053 -0.097945631 4290437095
0.76602143 0.10717767 -0.098858356 4290240229
0.76606214 0.10614314 -0.098902762 4290503401
0.76706386 0.10544633 -0.10068393 4290832113
0.76710469 0.10440999 -0.10072839 4290897906
0.76714545 0.10337364 -0.10077286 4290568942
0.76718628 0.10233729 -0.10081726 4290568943
0.76674646 0.10113578 -0.099993229 4290766320
0.76678723 0.10010036 -0.10003763 4290766320
0.76682794 0.099064924 -0.10008204 4290436844
0.766388 0.097867124 -0.099257708 4290042086
0.76594788 0.096671157 -0.098433316 4289976295
0.76598859 0.095637582 -0.098477662 4289976295
0.76602924 0.094603993 -0.098521948 4289976295
0.76606995 0.093570404 -0.098566294 4289910502
0.76659161 0.092694588 -0.099479556 4289910248
0.76663238 0.09166009 -0.099523962 4289910248
0.76667309 0.090625577 -0.099568307 4289975525
0.7667138 0.089591078 -0.099612713 4289909732
0.76723564 0.088710658 -0.10052615 4289974244
0.76727641 0.087675221 -0.10057056 4289908451
0.76731718 0.086639784 -0.10061496 4289907941
0.76735789 0.085604362 -0.10065943 4289842148
0.76739866 0.08456894 -0.10070384 4289840865
0.76743942 0.083533518 -0.10074824 4289839838
0.76748019 0.082498081 -0.10079265 4290035679
0.76752096 0.081462644 -0.10083705 4290165214
0.76756173 0.080427222 -0.10088146 4290293978
0.7676025 0.0793918 -0.10092586 4290356952
0.76716185 0.078211509 -0.10010076 4290222031
0.76768404 0.077320941 -0.10101467 4289956038
0.76772481 0.076285504 -0.10105908 4289624252
0.76776558 0.075250082 -0.10110354 4289951166
0.76780635 0.07421466 -0.10114795 4289884864
0.76784712 0.073179238 -0.10119236 4289884095
0.7683695 0.072283112 -0.10210633 4289685951
0.76841033 0.071246766 -0.1021508 4289554619
0.76845109 0.07021042 -0.10219526 4289488056
0.76849192 0.069174059 -0.10223973 4289423031
0.76853269 0.068137698 -0.10228419 4289554617
0.76857352 0.067101352 -0.1023286 4289620923
0.76813245 0.065931223 -0.10150319 4289554878
0.76817322 0.064895801 -0.1015476 4289554878
0.76773202 0.063728444 -0.10072196 4289686205
0.76729071 0.062562935 -0.099896252 4289686205
0.76733142 0.061529361 -0.099940598 4289620671
0.76689005 0.060366623 -0.099114895 4289752257
0.76741278 0.059462182 -0.10002923 4289752257
0.76745349 0.058428608 -0.10007358 4289752257
0.76845855 0.057647817 -0.1018585 4289752257
0.76849931 0.05661238 -0.1019029 4289752257
0.76902235 0.055701487 -0.1028176 4289751744
0.7695455 0.054788761 -0.10373241 4289685951
0.76958632 0.053751491 -0.10377693 4289817537
0.77010947 0.052835993 -0.1046918 4289949123
0.77015036 0.0517978 -0.10473633 4289949377
0.77019125 0.050759606 -0.10478085 4289949377
0.77023214 0.049721412 -0.10482538 4290015681
0.76979047 0.048565127 -0.10399938 4290147267
0.76983136 0.047527842 -0.10404384 4290147266
0.76987219 0.046490572 -0.10408837 4290147266
0.76991302 0.045453303 -0.10413283 4290345160
0.76947117 0.044301637 -0.10330653 4290411721
0.76951194 0.043265291 -0.103351 4290281675
0.76955277 0.04222893 -0.10339546 4290480333
0.76959354 0.041192584 -0.10343987 4290613457
0.77011722 0.040266939 -0.10435528 4290813143
0.77015805 0.039229661 -0.1043998 4291144417
0.77019888 0.038192384 -0.10444427 4291212775
0.77023971 0.037155114 -0.10448879 4291346412
0.76979756 0.036010824 -0.10366213 4291413999
0.76983839 0.034974478 -0.1037066 4291611635
0.76987916 0.033938132 -0.10375106 4291415536
0.76991999 0.032901779 -0.10379547 4291154160
0.76996076 0.031865425 -0.10383993 4291023342
0.77000159 0.030829079 -0.1038844 4290892267
0.77052557 0.029894195 -0.10480022 4290892267
0.7705664 0.028856926 -0.10484469 4290891754
0.77060723 0.027819656 -0.10488915 4290760681
0.77016479 0.026683673 -0.1040622 4290760680
0.77020556 0.02564732 -0.10410666 4290695400
0.77024639 0.024610974 -0.10415107 4290826214
0.77028716 0.02357462 -0.10419554 4290694628
0.77032799 0.022538267 -0.10424 4290694628
0.77085227 0.021596007 -0.10515612 4290694628
0.7708931 0.020558737 -0.10520059 4290759649
0.77141744 0.019613706 -0.10611671 4290825696
0.7719419 0.018666841 -0.10703307 4290825183
0.77246642 0.017718129 -0.10794938 4290825436
0.77250737 0.016678087 -0.10799402 4290891227
0.77254832 0.015638046 -0.1080386 4291022295
0.77258927 0.014598005 -0.10808325 4291021782
0.77263021 0.013557963 -0.10812783 4291283918
0.77267116 0.012517922 -0.10817248 4291807426
0.77271211 0.011477873 -0.10821706 4291871918
0.77275306 0.010437831 -0.10826164 4292067480
0.77279401 0.0093977898 -0.10830629 4292198537
0.77235097 0.0082756504 -0.10747874 4292199037
0.77239192 0.0072365254 -0.10752332 4292133494
0.77291685 0.0062776655 -0.1084401 4292133237
0.7729578 0.0052376166 -0.10848469 4292264052
0.77299875 0.0041975826 -0.10852933 4292591477
0.77352375 0.0032350048 -0.10944623 4292525423
0.77356476 0.0021940395 -0.10949087 4292590187
0.77360576 0.0011530742 -0.10953552 4292524392
0.77364671 0.00011210889 -0.10958016 4292457831
0.77368772 -0.00092885643 -0.1096248 4292128866
0.77372867 -0.0019698218 -0.10966945 4291865183
0.77376968 -0.0030107796 -0.10971409 4291733597
0.77381063 -0.0040517524 -0.10975873 4291732568
0.77385163 -0.0050927103 -0.10980338 4291535189
0.77389264 -0.0061336756 -0.10984802 4291337810
0.77393359 -0.0071746409 -0.10989267 4291403090
0.7739746 -0.0082156062 -0.10993731 4291534162
0.77401555 -0.0092565715 -0.10998195 4291599442
0.77405655 -0.010297537 -0.11002666 4291664724
0.77409756 -0.011338502 -0.1100713 4291665237
0.77413851 -0.012379467 -0.11011595 4291796569
0.77417952 -0.013420433 -0.11016059 4291666266
0.77470517 -0.014399596 -0.11107826 4291798112
0.77426147 -0.015502363 -0.11024988 4291930986
0.77430242 -0.016543329 -0.11029452 4291801459
0.77434343 -0.017584294 -0.11033916 4291671942
0.77438444 -0.018625259 -0.11038381 4291870629
0.77442539 -0.019666225 -0.11042845 4292465354
0.77495128 -0.020650923 -0.11134642 4292665320
0.77499235 -0.021692812 -0.11139113 4292338675
0.77503335 -0.022734702 -0.11143577 4292076790
0.77507436 -0.023776591 -0.11148047 4292011510
0.77511537 -0.024818476 -0.11152518 4291880442
0.7756415 -0.025808726 -0.11244321 4291880442
0.77568257 -0.026851539 -0.11248797 4291880442
0.77572364 -0.027894348 -0.11253268 4291814649
0.7757647 -0.028937157 -0.11257744 4291814396
0.77580571 -0.02997997 -0.11262214 4291814396
0.77584678 -0.03102278 -0.11266685 4291748603
0.77588785 -0.032065593 -0.11271161 4291617017
0.77592891 -0.033108402 -0.11275631 4291551226
0.77596998 -0.034151211 -0.11280107 4291353079
0.77601099 -0.035194024 -0.11284578 4291417078
0.77556658 -0.036279246 -0.11201674 4291415026
0.77560765 -0.037321135 -0.11206144 4291346412
0.77564865 -0.038363021 -0.11210608 4290750938
0.77568966 -0.039404906 -0.11215079 4290484943
0.77573067 -0.040446796 -0.11219549 4290877648
0.77528602 -0.041526489 -0.11136609 4291205334
0.77532703 -0.042567454 -0.11141074 4291467992
0.77536803 -0.04360842 -0.11145538 4291402715
0.77540898 -0.044649385 -0.11150002 4291205336
0.77544999 -0.04569035 -0.11154467 4291335640
0.77597678 -0.046698123 -0.11246359 4291335640
0.77601779 -0.047740012 -0.1125083 4291532508
0.77605885 -0.048781902 -0.112553 4291466715
0.77609986 -0.049823787 -0.1125977 4291532508
0.77614087 -0.050865673 -0.11264235 4291532508
0.77666789 -0.051878996 -0.11356145 4291465688
0.77670896 -0.052921806 -0.11360615 4291399895
0.77675003 -0.053964619 -0.11365086 4291398612
0.7767911 -0.055007428 -0.11369562 4291332819
0.7768321 -0.056050241 -0.11374032 4291069908
0.77735943 -0.057069086 -0.11465973 4290873299
0.77740055 -0.058112819 -0.11470449 4290873299
0.77744162 -0.059156552 -0.11474931 4290676433
0.777969 -0.060179103 -0.11566883 4290742224
0.77801013 -0.06122376 -0.11571366 4290939603
0.77805126 -0.062268417 -0.11575848 4291004115
0.77809238 -0.063313067 -0.1158033 4290610125
0.77813351 -0.064357728 -0.11584806 4290281673
0.77768815 -0.065418951 -0.11501789 4289955270
0.77772927 -0.066462688 -0.11506265 4289825481
0.77777034 -0.067506418 -0.11510742 4289500108
0.77829802 -0.068536356 -0.1160273 4289634515
0.77833915 -0.069581009 -0.11607212 4289966301
0.77838027 -0.070625663 -0.11611694 4290890224
0.7784214 -0.071670324 -0.1161617 4291155189
0.77846253 -0.072714977 -0.11620653 4291814655
0.77850372 -0.07375963 -0.11625135 4291881983
0.77854484 -0.074804291 -0.11629617 4291816702
0.77907282 -0.075841606 -0.11721623 4291620348
0.77960092 -0.076880753 -0.11813653 4291620602
0.77964211 -0.077927262 -0.11818141 4291621116
0.77968329 -0.078973763 -0.11822629 4291686911
0.77972448 -0.080020264 -0.11827117 4291621119
0.77976573 -0.081066765 -0.11831605 4291620351
0.77980691 -0.082113266 -0.11836094 4291555071
0.7798481 -0.083159767 -0.11840582 4291621375
0.77988929 -0.084206268 -0.1184507 4291162111
0.78041768 -0.085253723 -0.11937135 4291162879
0.78045893 -0.086301148 -0.1194163 4289584879
0.78050017 -0.087348573 -0.11946118 4287019981
0.78054142 -0.088395998 -0.11950612 4285968576
0.78106993 -0.089448094 -0.12042683 4286167239
0.78111124 -0.090496443 -0.12047184 4285708484
0.78163993 -0.091551282 -0.12139279 4285643207
0.78168124 -0.092600547 -0.12143779 4285577414
0.78220999 -0.093658164 -0.12235874 4285706437
0.78225136 -0.094708361 -0.12240374 4287612634
0.78278029 -0.095768735 -0.12332499 4291360510
0.78330928 -0.096830957 -0.12424624 4292279551
0.78335071 -0.097882994 -0.12429136 4292410111
0.78339213 -0.09893503 -0.12433648 4292541439
0.78587204 -0.10005648 -0.12876284 4292870143
0.78688908 -0.10114273 -0.13056076 4292935679
0.78790635 -0.10223269 -0.13235879 4292804349
0.7679652 0.12084814 -0.10488123 4285557083
0.76704776 0.11944553 -0.10318929 4285557341
0.76613021 0.11804659 -0.10149711 4285425759
0.76521242 0.11665138 -0.099804819 4285163619
0.76477391 0.11543789 -0.098980725 4284704872
0.76481462 0.11440339 -0.09902513 4285364607
0.76437593 0.11319267 -0.098200917 4287340460
0.76441658 0.11215907 -0.098245203 4289579478
0.76445729 0.11112549 -0.098289549 4290830828
0.764498 0.11009192 -0.098333895 4290766061
0.76453865 0.10905834 -0.098378241 4290568682
0.76457936 0.10802474 -0.098422587 4290305510
0.76462007 0.10699116 -0.098466873 4290239974
0.76514041 0.10612734 -0.099380076 4290568939
0.76518118 0.10509285 -0.099424422 4290832369
0.76570159 0.10422624 -0.10033774 4290832113
0.76574236 0.10319082 -0.10038215 4290503150
0.76578313 0.10215538 -0.10042655 4290503150
0.7658239 0.10111996 -0.10047096 4290766320
0.76538479 0.099920325 -0.09964633 4290766320
0.76542556 0.098885797 -0.099690676 4290436843
0.76498628 0.097688936 -0.098865867 4290042086
0.76502699 0.096655361 -0.098910213 4289976295
0.7650677 0.095621772 -0.098954558 4289976295
0.76510835 0.094588183 -0.098998904 4290107113
0.76514906 0.093554609 -0.09904319 4290172906
0.76518977 0.092521019 -0.099087536 4290041834
0.76523042 0.09148743 -0.099131882 4289976041
0.76575136 0.090609767 -0.10004568 4290041318
0.76579207 0.089575253 -0.10009003 4289975525
0.76583284 0.088540755 -0.10013437 4290040807
0.76587355 0.087506257 -0.10017878 4289975014
0.76591426 0.086471744 -0.10022312 4289843429
0.76595503 0.085437231 -0.10026753 4289711843
0.76599574 0.084402733 -0.10031188 4289711072
0.76603645 0.083368234 -0.10035622 4289579229
0.76607722 0.082333736 -0.10040063 4289839836
0.7665984 0.081446819 -0.10131478 4289904091
0.76615864 0.08026471 -0.10048938 4289836760
0.76619941 0.079230212 -0.10053372 4289965783
0.76624012 0.078195699 -0.10057813 4289896912
0.76628083 0.077161185 -0.10062248 4289170112
0.7663216 0.076126687 -0.10066688 4289495745
0.76636231 0.075092189 -0.10071123 4289625022
0.76688379 0.074198835 -0.10162568 4289885886
0.76692456 0.073163398 -0.10167009 4289819582
0.76696533 0.072127961 -0.10171449 4289753023
0.7670061 0.071092539 -0.1017589 4289489851
0.76704687 0.070057116 -0.1018033 4289686205
0.76756853 0.069158219 -0.10271788 4289686205
0.76760936 0.068121873 -0.10276234 4289554878
0.76716912 0.06695082 -0.10193658 4289686464
0.76720989 0.065915398 -0.10198098 4289620671
0.76676959 0.064747132 -0.10115492 4289686464
0.76632911 0.063580714 -0.1003288 4289686464
0.76588869 0.062416144 -0.099502742 4289752257
0.76592934 0.061383478 -0.099547088 4289949634
0.76596999 0.060350828 -0.099591374 4289949634
0.76601064 0.059318177 -0.099635661 4289883841
0.76605129 0.058285512 -0.099679947 4289818048
0.76657331 0.057379223 -0.10059482 4289818302
0.76709539 0.056471102 -0.10150993 4289818302
0.76761758 0.055561118 -0.1024251 4289818302
0.76813978 0.054649316 -0.10334021 4289818302
0.76818055 0.053612955 -0.10338467 4289884095
0.76870298 0.052698366 -0.10430002 4290081474
0.76874381 0.051661097 -0.10434449 4290213060
0.76878464 0.050623827 -0.10438901 4290016195
0.76882547 0.049586542 -0.10443348 4289950657
0.76838458 0.04843121 -0.10360688 4289754048
0.76842541 0.047394849 -0.10365134 4289951681
0.76846617 0.046358489 -0.10369581 4290083781
0.768507 0.045322143 -0.10374027 4290215878
0.76806599 0.044171415 -0.10291362 4290085573
0.76810676 0.043135993 -0.10295802 4290088140
0.76814753 0.042100556 -0.10300243 4290287058
0.7681883 0.041065134 -0.10304683 4290486231
0.76871097 0.04014039 -0.10396254 4290947807
0.7687518 0.039104037 -0.10400695 4291344360
0.76879257 0.038067691 -0.10405141 4291477228
0.7688334 0.037031338 -0.10409588 4291347436
0.76887423 0.035994984 -0.10414034 4291283440
0.76843286 0.034852572 -0.10331333 4291350258
0.76847363 0.033817135 -0.10335773 4291023090
0.76851439 0.032781713 -0.10340214 4290761456
0.76855516 0.031746283 -0.10344654 4290696176
0.7690782 0.030813232 -0.10436255 4290958319
0.76911902 0.029776879 -0.10440701 4290958317
0.76915979 0.028740533 -0.10445148 4290826731
0.76920062 0.027704179 -0.10449594 4290630121
0.76924139 0.026667826 -0.10454035 4290630121
0.76879972 0.025533713 -0.10371298 4290630634
0.76884049 0.024498291 -0.10375738 4290761191
0.76888126 0.023462862 -0.10380185 4290629605
0.76892203 0.022427432 -0.10384625 4290563812
0.76944542 0.021486081 -0.10476261 4290563812
0.76996893 0.020542882 -0.10567921 4290629346
0.77000976 0.019505613 -0.10572368 4290629344
0.77053332 0.018559642 -0.10664028 4290628831
0.77105695 0.017611839 -0.10755706 4290629084
0.77109784 0.016572714 -0.10760164 4290760154
0.77162164 0.015622146 -0.10851848 4290825686
0.77166259 0.014582105 -0.10856313 4290890709
0.77170354 0.013542064 -0.10860771 4291218385
0.77174449 0.012502022 -0.10865235 4291479753
0.77178544 0.011461973 -0.10869694 4291806651
0.77182639 0.010421932 -0.10874152 4292002211
0.77186733 0.0093818903 -0.10878617 4292198288
0.77142513 0.0082597658 -0.1079582 4292197761
0.77146608 0.0072206408 -0.10800278 4292197497
0.77199018 0.006261766 -0.10891998 4292262774
0.77203113 0.0052217171 -0.10896462 4292328565
0.77207208 0.0041816831 -0.10900921 4292525174
0.7725963 0.0032190904 -0.10992652 4292393585
0.77263731 0.0021781325 -0.10997117 4292262251
0.77267826 0.0011371672 -0.11001581 4292261735
0.77271926 9.6194446e-05 -0.11006045 4292129636
0.77276021 -0.00094476342 -0.1101051 4291997280
0.77280122 -0.0019857287 -0.11014974 4291864926
0.77284217 -0.0030266941 -0.11019439 4291799133
0.77288318 -0.0040676594 -0.11023903 4291798365
0.77292418 -0.0051086247 -0.11028367 4291600986
0.77296513 -0.00614959 -0.11032832 4291403605
0.77300614 -0.0071905553 -0.11037302 4291403092
0.77304709 -0.0082315207 -0.11041766 4291468117
0.7730881 -0.009272486 -0.11046231 4291467604
0.77312911 -0.010313451 -0.11050695 4291402326
0.7726863 -0.011418954 -0.10967833 4291402840
0.77272725 -0.012458995 -0.10972297 4291404636
0.7727682 -0.013499036 -0.10976756 4291537250
0.77280915 -0.014539078 -0.10981214 4291603050
0.7728501 -0.015579119 -0.10985678 4291801720
0.77289104 -0.016619168 -0.10990137 4291737994
0.77341598 -0.017600209 -0.11081946 4291542686
0.77345693 -0.018641174 -0.1108641 4291676867
0.77349794 -0.019682139 -0.11090875 4292139487
0.77353889 -0.020723104 -0.11095345 4292207598
0.7735799 -0.021764066 -0.11099809 4292011508
0.77410507 -0.022750631 -0.11191654 4291880438
0.77414608 -0.023792516 -0.11196119 4291815160
0.77418709 -0.024834406 -0.11200589 4291945465
0.77471238 -0.02582467 -0.1129244 4291945465
0.77475345 -0.026867479 -0.1129691 4292010745
0.77479452 -0.027910288 -0.11301386 4292076538
0.77531999 -0.028904237 -0.11393261 4291879419
0.77487659 -0.029995911 -0.11310333 4291813626
0.77491766 -0.031038724 -0.11314803 4291485431
0.77495873 -0.032081533 -0.11319274 4291418868
0.7749998 -0.033124343 -0.1132375 4291548916
0.77504081 -0.034167156 -0.1132822 4291481329
0.77459729 -0.035253286 -0.11245281 4291741423
0.7746383 -0.036295172 -0.11249745 4291738347
0.7746793 -0.037337061 -0.11254215 4291077852
0.77472031 -0.038378946 -0.11258686 4290548946
0.77476138 -0.039420836 -0.11263156 4290941395
0.77480239 -0.040462725 -0.1126762 4291466715
0.77435857 -0.041542403 -0.11184639 4291663324
0.77439958 -0.042583369 -0.11189103 4291663067
0.77444053 -0.043624334 -0.11193568 4291860707
0.77448153 -0.044665299 -0.11198032 4291729121
0.77500749 -0.045672163 -0.11289966 4291662562
0.77504849 -0.046714053 -0.11294436 4291662562
0.7750895 -0.047755938 -0.11298907 4291662048
0.77513051 -0.048797827 -0.11303371 4291596253
0.77517158 -0.049839713 -0.11307842 4291597023
0.77521259 -0.050881602 -0.11312312 4291531229
0.77525359 -0.051923491 -0.11316776 4291333081
0.77577984 -0.052937746 -0.11408734 4291464154
0.77582091 -0.053980559 -0.11413205 4291332055
0.77586192 -0.055023368 -0.11417675 4291528920
0.77590299 -0.056066182 -0.11422151 4291264983
0.77642947 -0.057085045 -0.11514133 4291264983
0.7764706 -0.058128778 -0.1151861 4291331030
0.77699715 -0.059150413 -0.11610603 4291265235
0.77703828 -0.060195073 -0.11615086 4291396821
0.7770794 -0.061239731 -0.11619568 4291396820
0.77712053 -0.062284388 -0.1162405 4291199444
0.77716166 -0.063329041 -0.11628526 4291199444
0.77720279 -0.064373702 -0.11633009 4291068119
0.77675825 -0.06543491 -0.1154995 4291068119
0.77679932 -0.066478647 -0.11554426 4291068117
0.77684039 -0.067522377 -0.11558902 4290804945
0.77688152 -0.068566114 -0.11563379 4290608082
0.77740842 -0.069596976 -0.11655414 4290609876
0.77744955 -0.070641637 -0.1165989 4290612950
0.77749068 -0.071686298 -0.11664373 4291010784
0.7775318 -0.072730944 -0.11668855 4291738351
0.77757293 -0.073775604 -0.11673337 4292070648
0.77810001 -0.07481201 -0.11765385 4292665599
0.7781412 -0.075857595 -0.11769867 4292602879
0.77818239 -0.076903164 -0.11774349 4292209918
0.77870971 -0.077943251 -0.11866426 4291882491
0.7787509 -0.078989759 -0.11870915 4291751677
0.77879208 -0.08003626 -0.11875403 4291817981
0.77883327 -0.081082761 -0.11879891 4291686395
0.77887452 -0.082129262 -0.11884379 4291817981
0.77842933 -0.083176643 -0.11801261 4291686143
0.77895689 -0.084222272 -0.11893356 4291620863
0.77899808 -0.085268773 -0.11897844 4291949823
0.77903932 -0.086315274 -0.11902332 4290635257
0.77908051 -0.087361775 -0.11906826 4287611605
0.7791217 -0.088408284 -0.11911315 4286034113
0.77964938 -0.089459434 -0.12003434 4286232773
0.77969062 -0.090506859 -0.12007928 4286167493
0.78021842 -0.091560811 -0.12100047 4285641665
0.7807464 -0.092616588 -0.1219219 4285969862
0.78078771 -0.093665861 -0.1219669 4285706178
0.78082901 -0.094715133 -0.1220119 4287809243
0.78135699 -0.095774606 -0.12293339 4291623166
0.78188515 -0.096835919 -0.12385505 4292345343
0.78192651 -0.097887032 -0.12390012 4292410111
0.78440213 -0.099003009 -0.12832844 4292410367
0.78444368 -0.10005874 -0.12837374 4293001215
0.7854591 -0.10114411 -0.13017237 4293066751
0.78647459 -0.10223316 -0.13197124 4292869629
0.76608098 0.12046876 -0.10362417 4285359961
0.76516515 0.119068 -0.10193121 4285294427
0.76472753 0.11785088 -0.10110688 4285294432
0.7633329 0.11627763 -0.098544776 4284966754
0.76337361 0.11524402 -0.098589122 4284705387
0.76341432 0.11421045 -0.098633468 4285628291
0.76297647 0.11300068 -0.097808897 4287735986
0.76301712 0.111968 -0.097853184 4289645783
0.76305777 0.11093535 -0.09789753 4290567657
0.76309842 0.1099027 -0.097941816 4290700014
0.76313907 0.10887002 -0.097986102 4290502890
0.76317972 0.10783737 -0.098030388 4290173924
0.76369917 0.10697537 -0.09894377 4290174181
0.76373982 0.10594179 -0.098988116 4290634732
0.76378053 0.10490822 -0.099032462 4290897905
0.76430017 0.10404252 -0.099946141 4290766320
0.76434094 0.10300801 -0.099990487 4290503149
0.76486057 0.10213955 -0.10090435 4290503150
0.76442236 0.100939 -0.10007924 4290700527
0.76446307 0.0999045 -0.10012364 4290634734
0.76402467 0.098706715 -0.099298477 4290305258
0.76406538 0.09767314 -0.099342763 4289976293
0.76362693 0.096478127 -0.098517597 4289976295
0.76366758 0.095445462 -0.098561883 4290042088
0.76370823 0.094412796 -0.098606169 4290041834
0.76374888 0.093380146 -0.098650455 4290041834
0.76426888 0.092505209 -0.099564433 4289976041
0.76430953 0.091471635 -0.099608779 4289976041
0.76435024 0.09043806 -0.099653125 4290107111
0.76487041 0.089559443 -0.10056734 4290041318
0.76491112 0.08852493 -0.10061175 4290106600
0.76447231 0.087337308 -0.099786103 4290040807
0.76499259 0.086455934 -0.10070044 4290105831
0.76455373 0.085270144 -0.099874735 4290105831
0.76459438 0.084236555 -0.099919081 4290105060
0.76511472 0.083352409 -0.10083359 4290170083
0.76515549 0.082317911 -0.10087794 4290234336
0.7651962 0.081283398 -0.10092235 4290167261
0.76523691 0.080248885 -0.10096669 4290231259
0.76527768 0.079214387 -0.10101104 4290425820
0.76483852 0.078035064 -0.1001851 4290488797
0.7653591 0.077145375 -0.10109979 4289959633
0.76539987 0.076110877 -0.10114419 4289561798
0.76544058 0.075076364 -0.10118854 4289756869
0.76548129 0.074041866 -0.10123295 4289886404
0.76552206 0.073007368 -0.10127729 4289819841
0.76556277 0.071972854 -0.10132164 4289884609
0.76608354 0.071076714 -0.10223669 4289818816
0.76612431 0.070041291 -0.10228109 4289883843
0.76616508 0.069005854 -0.1023255 4289686464
0.76620585 0.067970432 -0.1023699 4289554880
0.76624662 0.066934995 -0.10241431 4289686466
0.76580715 0.06576582 -0.10158789 4289752257
0.76536757 0.064598493 -0.10076141 4289752257
0.76492792 0.063433014 -0.099934936 4289948609
0.76496857 0.062400363 -0.099979222 4290014916
